# .PCD v0.7 - Point Cloud Data file format
VERSION 0.7
FIELDS x y z intensity
SIZE 4 4 4 4
TYPE F F F F
COUNT 1 1 1 1
WIDTH 1201
HEIGHT 1
VIEWPOINT 0 0 0 1 0 0 0
POINTS 1201
DATA ascii
-8.0869999 3.609 -0.079000004 0.090000004
-8.0839996 3.5769999 -0.079000004 0.090000004
-8.0900002 3.549 -0.078000002 0.090000004
-8.0790005 3.529 -0.078000002 0.090000004
-8.0769997 3.4979999 -0.077 0.090000004
-8.0819998 3.471 -0.077 0.090000004
-8.0860004 3.4419999 -0.077 0.090000004
-8.099 3.4170001 -0.077 0.14
-8.1110001 3.3929999 -0.077 0.090000004
-8.1309996 3.3710001 -0.077 0.090000004
-8.1470003 3.3629999 -0.078000002 0.14
-8.158 3.3369999 -0.078000002 0.1
-8.198 3.3239999 -0.079000004 0.15000001
-8.2290001 3.306 -0.079000004 0.16
-8.2480001 3.2839999 -0.079999998 0.16
-8.2849998 3.2679999 -0.081 0.16
-8.3100004 3.2479999 -0.081 0.16
-8.335 3.243 -0.082000002 0.1
-8.368 3.2260001 -0.082999997 0
-8.4209995 3.2160001 -0.083999999 0
-8.4200001 3.1849999 -0.083999999 0
-7.8429999 3.8540001 -0.133 0
-7.8119998 3.809 -0.131 0
-7.8109999 3.793 -0.131 0
-7.8260002 3.77 -0.131 0
-7.8080001 3.7309999 -0.13 0
-7.8210001 3.707 -0.13 0
-7.8130002 3.6730001 -0.12899999 0
-7.8039999 3.6400001 -0.12800001 0
-7.8119998 3.6129999 -0.12800001 0
-7.8099999 3.598 -0.12800001 0
-7.8070002 3.5669999 -0.127 0
-7.8060002 3.536 -0.126 0
-7.8080001 3.5079999 -0.126 0
-7.8080001 3.4779999 -0.126 0
-7.796 3.444 -0.125 0
-7.8049998 3.4189999 -0.125 0
-7.8109999 3.4070001 -0.125 0
-7.7989998 3.3729999 -0.124 0
-7.8119998 3.349 -0.124 0
-7.8109999 3.3199999 -0.123 0
-7.8010001 3.2869999 -0.122 0
-7.8720002 3.0580001 -0.122 0
-8.4659996 2.9690001 -0.142 0
-8.5319996 2.9619999 -0.14399999 0
-8.5909996 2.967 -0.146 0
-8.6949997 2.9719999 -0.15000001 0
-8.7720003 2.9679999 -0.153 0
-8.8879995 2.9749999 -0.15700001 0
-8.9680004 2.97 -0.16 0
-9.0830002 2.977 -0.16500001 0
-8.4460001 2.96 -0.19400001 0
-8.4770002 2.941 -0.19599999 0
-8.5600004 2.9400001 -0.199 0
-8.7589998 2.9630001 -0.208 0
-8.842 2.961 -0.211 0
-8.9259996 2.957 -0.215 0
-9.2320004 3.1010001 -0.28600001 0
-9.2270002 3.0829999 -0.285 0
-9.2180004 3.0480001 -0.28400001 0
-9.2349997 3.0220001 -0.285 0
-8.3739996 2.891 -0.29800001 0
-9.2770004 3.108 -0.34999999 0
-9.2869997 3.079 -0.34999999 0
-9.2709999 3.0569999 -0.34900001 0
-8.368 2.872 -0.345 0
-8.415 2.859 -0.347 0
-8.5129995 2.862 -0.35299999 0
-7.8920002 3.677 -0.39700001 0
-7.7909999 3.1630001 -0.37599999 0
-8.5570002 3.1059999 -0.42399999 0
-8.375 2.8469999 -0.40700001 0
-7.711 4.092 -0.442 0
-7.6929998 4.066 -0.44 0
-7.6680002 4.0229998 -0.43599999 0
-7.7360001 4.027 -0.44100001 0
-7.836 3.9549999 -0.44499999 0
-8.1059999 4.0739999 -0.46700001 0
-7.6760001 3.829 -0.43000001 0
-7.7319999 3.8269999 -0.43399999 0
-7.3730001 3.622 -0.40400001 0
-7.3699999 3.592 -0.40200001 0
-7.369 3.563 -0.40099999 0
-7.3639998 3.5320001 -0.40000001 0
-7.3600001 3.516 -0.39899999 0
-7.3709998 3.493 -0.39899999 0
-7.375 3.4660001 -0.39899999 0
-7.395 3.447 -0.40000001 0
-7.4169998 3.4289999 -0.40000001 0
-7.4650002 3.4230001 -0.40400001 0
-7.598 3.454 -0.41299999 0
-7.8369999 3.3570001 -0.42699999 0
-7.8569999 3.336 -0.42699999 0
-7.8559999 3.3069999 -0.426 0
-7.8579998 3.2780001 -0.426 0
-7.8639998 3.2520001 -0.42500001 0
-7.882 3.23 -0.426 0
-7.8860002 3.2030001 -0.426 0
-7.8730001 3.1830001 -0.42399999 0
-7.7639999 2.901 -0.40900001 0
-8.5620003 3.1359999 -0.47 0
-8.5679998 3.1070001 -0.47 0
-8.5670004 3.092 -0.47 0
-8.29 2.846 -0.44400001 0
-8.3690004 2.8440001 -0.44999999 0
-8.4110003 2.8429999 -0.45300001 0
-8.4849997 2.8380001 -0.458 0
-8.5810003 2.8399999 -0.46399999 0
-9.526 2.8380001 -0.53100002 0.039999999
-9.493 2.7909999 -0.59299999 0
-9.474 2.721 -0.58999997 0
-7.599 4.0830002 -0.54000002 0
-7.6009998 4.053 -0.53899997 0
-7.6030002 4.0240002 -0.53799999 0
-7.5929999 3.9879999 -0.53600001 0
-7.6090002 3.9660001 -0.537 0
-7.5689998 3.9300001 -0.53200001 0
-7.46 3.845 -0.51999998 0
-7.3340001 3.7509999 -0.50700003 0
-7.3239999 3.717 -0.505 0
-7.3200002 3.6860001 -0.50300002 0
-7.3169999 3.6559999 -0.50199997 0
-7.3200002 3.6289999 -0.50099999 0
-7.3200002 3.615 -0.50099999 0
-7.3280001 3.5899999 -0.5 0
-7.3140001 3.5550001 -0.498 0
-7.3179998 3.5280001 -0.49700001 0
-7.3309999 3.506 -0.49700001 0
-7.3200002 3.473 -0.495 0
-7.3249998 3.447 -0.495 0
-7.2979999 3.421 -0.49200001 0
-7.302 3.3940001 -0.491 0
-7.3000002 3.3659999 -0.49000001 0
-7.3119998 3.3440001 -0.49000001 0
-7.3060002 3.313 -0.48899999 0
-7.335 3.2980001 -0.49000001 0
-7.3379998 3.286 -0.49000001 0
-7.3829999 3.2780001 -0.493 0
-7.4460001 3.2780001 -0.498 0
-7.8270001 3.1689999 -0.52499998 0
-8.4890003 3.098 -0.57599998 0
-8.5 3.072 -0.57599998 0
-8.1949997 2.8039999 -0.54400003 0
-8.2379999 2.79 -0.54699999 0
-8.3059998 2.783 -0.55199999 0
-8.3649998 2.7739999 -0.55699998 0
-8.4209995 2.7780001 -0.56099999 0
-9.4650002 2.776 -0.64700001 0
-9.4659996 2.744 -0.64600003 0
-9.4490004 2.7079999 -0.64399999 0
-7.2950001 3.631 -0.54799998 0
-7.2950001 3.602 -0.54699999 0
-7.2849998 3.569 -0.54500002 0
-7.2870002 3.556 -0.54400003 0
-7.2820001 3.5250001 -0.54299998 0
-7.302 3.506 -0.54400003 0
-7.283 3.4690001 -0.54100001 0
-7.283 3.441 -0.53899997 0
-7.2880001 3.415 -0.53899997 0
-9.4119997 2.756 -0.69999999 0
-9.4949999 2.7479999 -0.708 0
-7.6020002 4.2340002 -0.65399998 0.63999999
-7.5450001 4.1719999 -0.64600003 0
-7.546 4.1409998 -0.64499998 0
-7.5170002 4.1100001 -0.64099997 0
-7.5139999 4.0780001 -0.639 0
-7.5079999 4.0139999 -0.63599998 0.12
-7.5159998 3.9879999 -0.63499999 0.15000001
-7.5029998 3.951 -0.63300002 0
-7.4959998 3.9170001 -0.63 0
-7.3109999 3.8069999 -0.60900003 0
-7.3060002 3.7750001 -0.60699999 0
-7.3260002 3.756 -0.60799998 0
-7.2810001 3.7049999 -0.602 0.090000004
-7.3270001 3.6989999 -0.60600001 0.12
-7.2989998 3.6559999 -0.602 0.44999999
-7.3140001 3.635 -0.602 0.25
-7.3060002 3.602 -0.60000002 0.28
-7.2940001 3.582 -0.59799999 0.28
-7.2979999 3.556 -0.597 0.31
-7.3189998 3.5380001 -0.59799999 0.20999999
-7.296 3.4990001 -0.59399998 0.52999997
-7.2950001 3.47 -0.59299999 0.31999999
-7.2930002 3.441 -0.59200001 0.28
-7.3060002 3.4330001 -0.59299999 0.22
-7.289 3.398 -0.58999997 0.49000001
-7.3039999 3.3759999 -0.58999997 0.31999999
-7.5240002 3.4489999 -0.61299998 0
-7.276 3.3080001 -0.58499998 0
-7.2709999 3.279 -0.583 0
-7.3039999 3.266 -0.58499998 0
-7.2800002 3.2409999 -0.58200002 0
-7.2989998 3.2219999 -0.583 0
-7.342 3.214 -0.58700001 0
-7.3520002 3.191 -0.58700001 0
-7.4219999 3.1930001 -0.59299999 0
-7.487 3.1930001 -0.59899998 0.07
-7.4879999 3.1659999 -0.59799999 0.17
-7.4889998 3.1530001 -0.59799999 0.12
-7.4920001 3.1259999 -0.597 0.16
-7.487 3.096 -0.59500003 0.28999999
-7.493 3.0710001 -0.59500003 0.19
-7.5139999 3.052 -0.59600002 0.16
-7.506 3.0220001 -0.59399998 0.31
-7.5050001 2.994 -0.59299999 0
-7.4910002 2.9749999 -0.59100002 0
-7.4910002 2.948 -0.58999997 0
-7.5279999 2.9349999 -0.59299999 0
-7.5349998 2.911 -0.59299999 0.059999999
-7.5149999 2.8759999 -0.58999997 0
-7.5219998 2.8510001 -0.58999997 0
-7.5180001 2.823 -0.588 0.13
-7.5500002 2.8210001 -0.59100002 0
-7.533 2.7880001 -0.58899999 0
-7.5320001 2.7609999 -0.588 0
-7.586 2.753 -0.59200001 0
-7.6430001 2.747 -0.597 0
-7.7059999 2.7420001 -0.60299999 0
-7.75 2.73 -0.60699999 0
-7.796 2.7320001 -0.611 0
-7.8540001 2.7249999 -0.616 0
-7.9109998 2.717 -0.62099999 0.050000001
-7.9889998 2.7149999 -0.62800002 0
-8.0600004 2.711 -0.63499999 0
-8.1239996 2.704 -0.64099997 0
-8.2019997 2.701 -0.648 0
-8.2670002 2.7079999 -0.65399998 0
-8.3549995 2.707 -0.662 0
-8.4390001 2.7049999 -0.67000002 0
-8.526 2.7030001 -0.67799997 0
-8.6210003 2.7030001 -0.68699998 0
-8.7209997 2.704 -0.69700003 0
-8.8330002 2.7079999 -0.70700002 0
-8.9069996 2.7160001 -0.71399999 0
-9.0150003 2.717 -0.72399998 0
-9.1070004 2.714 -0.73299998 0
-9.1940002 2.7079999 -0.741 0
-9.2510004 2.6930001 -0.74599999 0
-9.3450003 2.688 -0.755 0
-9.4359999 2.6819999 -0.76300001 0
-9.5209999 2.6900001 -0.77100003 0
-9.6359997 2.6889999 -0.78200001 0
-9.6890001 2.671 -0.787 0
-9.7919998 2.6659999 -0.796 0
-9.8979998 2.661 -0.80599999 0
-10.016 2.6589999 -0.81800002 0
-10.153 2.678 -0.83099997 0
-10.254 2.6700001 -0.83999997 0.12
-7.5710001 4.2649999 -0.70700002 0.25999999
-7.5570002 4.2259998 -0.70300001 0.2
-7.572 4.2030001 -0.704 0.25
-7.559 4.165 -0.70099998 0
-7.4559999 4.0170002 -0.68400002 0.54000002
-7.5019999 4.0110002 -0.68800002 0.11
-7.4959998 3.993 -0.68599999 0.16
-7.4980001 3.9630001 -0.685 0.20999999
-7.4770002 3.9219999 -0.68099999 0
-7.3109999 3.8050001 -0.66000003 0
-7.2909999 3.766 -0.65600002 0
-7.303 3.743 -0.65600002 0.12
-7.3000002 3.727 -0.65499997 0.14
-7.3080001 3.7019999 -0.65499997 0.31
-7.3000002 3.6689999 -0.653 0.30000001
-7.3049998 3.6429999 -0.65200001 0.31
-7.3060002 3.6140001 -0.65100002 0.34
-7.2969999 3.582 -0.648 0.28
-7.3000002 3.5539999 -0.64700001 0.34999999
-7.303 3.5420001 -0.64700001 0.34
-7.3039999 3.5139999 -0.64600003 0.34
-7.2950001 3.4809999 -0.64300001 0.31999999
-7.2989998 3.4549999 -0.64300001 0.33000001
-7.2969999 3.4260001 -0.64099997 0.34
-7.2909999 3.3959999 -0.639 0.34999999
-7.2930002 3.369 -0.63800001 0.27000001
-7.2950001 3.355 -0.63800001 0.38999999
-7.4569998 3.402 -0.65499997 0
-7.2610002 3.2850001 -0.63200003 0
-7.2550001 3.2550001 -0.63 0
-7.2659998 3.2320001 -0.63 0.07
-7.2719998 3.207 -0.62900001 0.090000004
-7.2839999 3.1849999 -0.63 0.090000004
-7.302 3.1789999 -0.63099998 0.079999998
-7.3569999 3.1760001 -0.63599998 0.079999998
-7.415 3.174 -0.64200002 0.090000004
-7.4850001 3.1760001 -0.648 0.19
-7.4889998 3.1500001 -0.648 0.19
-7.4749999 3.1170001 -0.64499998 0.38
-7.4910002 3.096 -0.64600003 0.2
-7.4749999 3.075 -0.64300001 0.37
-7.4980001 3.0569999 -0.64499998 0.22
-7.3579998 2.973 -0.62800002 0
-7.4450002 2.9809999 -0.63700002 0
-7.46 2.96 -0.63700002 0
-7.4780002 2.9400001 -0.639 0
-7.46 2.9059999 -0.63499999 0.059999999
-7.4829998 2.901 -0.63700002 0.16
-7.4959998 2.8789999 -0.63800001 0.12
-7.5879998 2.8599999 -0.64600003 0.44
-7.6550002 2.858 -0.653 0.64999998
-7.5349998 2.786 -0.63800001 0.16
-7.506 2.7479999 -0.634 0
-7.5120001 2.737 -0.634 0
-7.5619998 2.7290001 -0.639 0
-7.599 2.7149999 -0.64200002 0
-7.6560001 2.7090001 -0.64700001 0
-7.7319999 2.7079999 -0.65499997 0
-7.77 2.6949999 -0.65799999 0.11
-7.8470001 2.694 -0.66600001 0
-7.8790002 2.691 -0.66900003 0
-7.9499998 2.688 -0.676 0
-8.0129995 2.681 -0.68199998 0
-8.0869999 2.678 -0.68900001 0
-8.1630001 2.675 -0.69599998 0
-8.2340002 2.6700001 -0.70300001 0
-8.3240004 2.6700001 -0.71200001 0
-8.4169998 2.6860001 -0.722 0
-8.4969997 2.6819999 -0.73000002 0
-8.7770004 2.681 -0.75800002 0
-8.875 2.6800001 -0.76700002 0
-8.948 2.687 -0.77499998 0
-9.0340004 2.6830001 -0.78299999 0
-9.1239996 2.6789999 -0.792 0
-9.2089996 2.6719999 -0.801 0
-9.3070002 2.6689999 -0.81 0
-9.3999996 2.664 -0.81999999 0
-9.4879999 2.6570001 -0.82800001 0
-9.5670004 2.6630001 -0.83600003 0.1
-9.6719999 2.628 -0.84600002 0.17
-9.8299999 2.638 -0.86199999 0
-9.948 2.6359999 -0.87400001 0
-10.02 2.622 -0.88099998 0
-10.089 2.6059999 -0.88700002 0
-10.201 2.618 -0.89899999 0
-7.5900002 4.2940001 -0.76700002 0
-7.6139998 4.2909999 -0.76999998 0
-7.638 4.2729998 -0.77100003 0
-7.6129999 4.2280002 -0.76599997 0
-7.5560002 4.1659999 -0.75700003 0
-7.5289998 4.059 -0.74900001 0
-7.5139999 4.0359998 -0.74599999 0
-7.5300002 4.0139999 -0.74699998 0
-7.5149999 3.9760001 -0.74299997 0
-7.4439998 3.9089999 -0.73299998 0
-7.336 3.7939999 -0.71600002 0
-7.3509998 3.773 -0.71700001 0
-7.3270001 3.7460001 -0.713 0.050000001
-7.3280001 3.717 -0.71200001 0.090000004
-7.3429999 3.6960001 -0.71200001 0.13
-7.3299999 3.661 -0.70899999 0.090000004
-7.3449998 3.6389999 -0.70899999 0.14
-7.3319998 3.6040001 -0.70599997 0.17
-7.3249998 3.572 -0.704 0.090000004
-7.3410001 3.566 -0.70499998 0.15000001
-7.3169999 3.526 -0.70099998 0.1
-7.3189998 3.4990001 -0.69999999 0.090000004
-7.3150001 3.4690001 -0.69800001 0.090000004
-7.3130002 3.4400001 -0.69700003 0.090000004
-7.3150001 3.4130001 -0.69499999 0.090000004
-7.3200002 3.3870001 -0.69499999 0.090000004
-7.3260002 3.3759999 -0.69499999 0.15000001
-7.342 3.355 -0.69499999 0.13
-7.1620002 3.247 -0.67199999 0
-7.3200002 3.2349999 -0.68800002 0
-7.3210001 3.2079999 -0.68699998 0
-7.3369999 3.201 -0.68800002 0
-7.3790002 3.1919999 -0.69199997 0
-7.4299998 3.1860001 -0.69700003 0
-7.506 3.1900001 -0.70499998 0
-7.4899998 3.1559999 -0.70200002 0
-7.4980001 3.132 -0.70099998 0
-7.4949999 3.1029999 -0.69999999 0
-7.5 3.0910001 -0.69999999 0
-7.4159999 3.003 -0.68800002 0
-7.533 2.8989999 -0.69499999 0.1
-7.5739999 2.888 -0.699 0.2
-7.5419998 2.849 -0.69400001 0.15000001
-7.5440001 2.822 -0.69300002 0
-7.5689998 2.8050001 -0.69499999 0
-7.5689998 2.777 -0.69400001 0
-7.5599999 2.7609999 -0.69300002 0
-8.0220003 2.687 -0.73799998 0
-8.1000004 2.6849999 -0.74699998 0
-8.1689997 2.6789999 -0.75400001 0
-8.316 2.684 -0.76899999 0
-9.6070004 2.6689999 -0.90600002 0
-9.6920004 2.6589999 -0.91500002 0
-9.8079996 2.658 -0.92699999 0
-9.9020004 2.6500001 -0.93699998 0
-9.9469995 2.628 -0.94099998 0
-10.027 2.615 -0.949 0
-10.374 2.6700001 -0.98799998 0
-10.448 2.654 -0.99599999 0
-10.431 2.6329999 -0.99299997 0.050000001
-7.5760002 4.3060002 -0.81999999 0.17
-7.5879998 4.2820001 -0.81999999 0.14
-7.612 4.2639999 -0.82200003 0.28999999
-7.5970001 4.224 -0.81800002 0
-7.599 4.2090001 -0.81699997 0
-7.5089998 4.0669999 -0.80000001 0
-7.4990001 4.0310001 -0.79699999 0
-7.5029998 4.0029998 -0.796 0
-7.5029998 3.973 -0.79400003 0
-7.4710002 3.941 -0.78899997 0
-7.3109999 3.826 -0.76599997 0
-7.3210001 3.802 -0.76599997 0
-7.3239999 3.7750001 -0.76499999 0.1
-7.3239999 3.7449999 -0.76300001 0.22
-7.323 3.7160001 -0.76200002 0.22
-7.329 3.6900001 -0.76099998 0.19
-7.3119998 3.6670001 -0.75800002 0.41999999
-7.3169999 3.641 -0.75700003 0.25
-7.3239999 3.6159999 -0.75700003 0.25
-7.3200002 3.585 -0.75400001 0.16
-7.3080001 3.55 -0.75099999 0.47999999
-7.335 3.5350001 -0.75400001 0.23999999
-7.316 3.4979999 -0.75 0.23
-7.3119998 3.4820001 -0.74800003 0.2
-7.2940001 3.4449999 -0.745 0.36000001
-7.3179998 3.428 -0.74599999 0.2
-7.2940001 3.3889999 -0.74199998 0.38
-7.296 3.362 -0.741 0.25
-7.3099999 3.3410001 -0.741 0.23999999
-7.1469998 3.2379999 -0.71899998 0
-7.2839999 3.2869999 -0.736 0
-7.283 3.2590001 -0.73400003 0
-7.2789998 3.23 -0.73299998 0
-7.289 3.207 -0.73299998 0
-7.3010001 3.1849999 -0.73299998 0
-7.3369999 3.1730001 -0.736 0
-7.3850002 3.1670001 -0.741 0
-7.4860001 3.197 -0.75300002 0
-7.467 3.161 -0.75 0.07
-7.4660001 3.1329999 -0.74800003 0.079999998
-7.4809999 3.112 -0.74900001 0.090000004
-7.4819999 3.0840001 -0.74800003 0.079999998
-7.4809999 3.056 -0.74599999 0.14
-7.4879999 3.0320001 -0.74599999 0
-7.5029998 2.997 -0.74599999 0
-7.5029998 2.9690001 -0.745 0
-7.4949999 2.9389999 -0.74299997 0
-7.493 2.8840001 -0.74000001 0.1
-7.5279999 2.8840001 -0.74400002 0.16
-7.5250001 2.8559999 -0.74299997 0.18000001
-7.5619998 2.8429999 -0.74599999 0.23
-7.5710001 2.819 -0.74599999 0.27000001
-7.5539999 2.7850001 -0.74299997 0.27000001
-7.5289998 2.7490001 -0.73900002 0
-7.5300002 2.723 -0.73799998 0
-7.5479999 2.7160001 -0.73900002 0
-7.6030002 2.7090001 -0.745 0
-7.645 2.697 -0.74900001 0
-7.7129998 2.694 -0.75700003 0
-7.7610002 2.684 -0.76200002 0
-7.848 2.687 -0.77100003 0
-7.9190001 2.6830001 -0.77899998 0
-7.9679999 2.6860001 -0.78500003 0
-8.0349998 2.681 -0.792 0
-8.1110001 2.678 -0.80000001 0
-8.184 2.674 -0.80800003 0
-8.2690001 2.6730001 -0.81800002 0
-8.3380003 2.6670001 -0.82499999 0
-8.441 2.671 -0.83700001 0
-8.5229998 2.6819999 -0.84600002 0
-8.5939999 2.675 -0.85399997 0
-8.6949997 2.677 -0.86500001 0
-8.8170004 2.6849999 -0.87900001 0
-8.8920002 2.677 -0.88700002 0.07
-9 2.6789999 -0.89999998 0
-9.0670004 2.668 -0.90700001 0
-9.1549997 2.6630001 -0.91600001 0
-9.2320004 2.6700001 -0.92500001 0
-9.3240004 2.665 -0.93599999 0
-9.4219999 2.6619999 -0.94599998 0
-9.5129995 2.655 -0.95599997 0
-9.5939999 2.6459999 -0.96499997 0
-9.698 2.642 -0.977 0
-9.8170004 2.658 -0.991 0
-9.8450003 2.632 -0.99299997 0
-9.9259996 2.6210001 -1.002 0
-10.558 2.7539999 -1.0779999 0
-10.525 2.71 -1.073 0
-10.533 2.677 -1.073 0.16
-10.536 2.642 -1.072 0.23999999
-7.5700002 4.3000002 -0.87 0
-7.5560002 4.2600002 -0.866 0
-7.559 4.2309999 -0.86400002 0
-7.553 4.2119999 -0.86299998 0
-7.546 4.177 -0.86000001 0
-7.5450001 4.1459999 -0.85799998 0
-7.5349998 4.1100001 -0.85399997 0
-7.5430002 4.0830002 -0.85399997 0
-7.5289998 4.0450001 -0.85000002 0
-7.533 4.0170002 -0.84899998 0
-7.5180001 3.994 -0.84600002 0
-7.52 3.9649999 -0.84399998 0
-7.3509998 3.8469999 -0.81900001 0
-7.3330002 3.8080001 -0.815 0
-7.3400002 3.783 -0.815 0
-7.3390002 3.753 -0.81300002 0.14
-7.3369999 3.723 -0.81099999 0.22
-7.336 3.7079999 -0.81 0.30000001
-7.3189998 3.671 -0.80599999 0.23
-7.3369999 3.651 -0.80699998 0.41
-7.3309999 3.6199999 -0.80500001 0.28
-7.3439999 3.5969999 -0.80500001 0.28999999
-7.348 3.5710001 -0.80400002 0.33000001
-7.3400002 3.5380001 -0.801 0.30000001
-7.3309999 3.52 -0.79900002 0.30000001
-7.3330002 3.493 -0.79799998 0.28999999
-7.3390002 3.467 -0.79699999 0.30000001
-7.3330002 3.4360001 -0.79500002 0.30000001
-7.335 3.4089999 -0.79400003 0.28999999
-7.3309999 3.3800001 -0.792 0.28999999
-7.3239999 3.348 -0.78899997 0.28
-7.5300002 3.427 -0.81599998 0
-7.3270001 3.3080001 -0.78799999 0
-7.3140001 3.2750001 -0.78500003 0
-7.309 3.2449999 -0.78299999 0
-7.3270001 3.2249999 -0.78399998 0
-7.3460002 3.2060001 -0.78500003 0
-7.3649998 3.201 -0.787 0
-7.4190001 3.197 -0.79299998 0
-7.5100002 3.207 -0.80299997 0
-7.4959998 3.174 -0.80000001 0.13
-7.5040002 3.1489999 -0.80000001 0.17
-7.5139999 3.1259999 -0.80000001 0.18000001
-7.507 3.095 -0.79799998 0.18000001
-7.5050001 3.0810001 -0.79699999 0.18000001
-7.5110002 3.056 -0.796 0
-7.4850001 3.0179999 -0.792 0
-7.5170002 2.9219999 -0.79100001 0.059999999
-7.52 2.9089999 -0.79100001 0.2
-7.573 2.902 -0.796 0.16
-7.5840001 2.8789999 -0.79699999 0.15000001
-7.6030002 2.859 -0.79799998 0.76999998
-7.6389999 2.845 -0.80199999 0.63
-7.5999999 2.8039999 -0.79500002 0.36000001
-7.5689998 2.7650001 -0.79000002 0.13
-7.7459998 2.8150001 -0.81300002 0
-7.5770001 2.7279999 -0.78899997 0
-7.6059999 2.711 -0.792 0
-7.6630001 2.704 -0.79799998 0
-7.7280002 2.7 -0.80599999 0
-7.7870002 2.6930001 -0.81199998 0
-7.8540001 2.688 -0.81999999 0
-7.9089999 2.6789999 -0.82599998 0
-7.96 2.6819999 -0.83200002 0
-8.007 2.6700001 -0.83700001 0
-8.0889997 2.6689999 -0.84600002 0
-8.1739998 2.668 -0.85600001 0
-8.2659998 2.6689999 -0.86699998 0
-8.3690004 2.6730001 -0.87900001 0
-8.4639997 2.6889999 -0.89099997 0
-8.5270004 2.6789999 -0.898 0.050000001
-8.6549997 2.6889999 -0.91299999 0
-8.724 2.6800001 -0.921 0
-8.8050003 2.675 -0.93099999 0
-8.8859997 2.668 -0.94 0
-8.974 2.664 -0.94999999 0
-9.0559998 2.6730001 -0.95999998 0
-9.1499996 2.6689999 -0.97100002 0
-9.2449999 2.665 -0.98199999 0
-9.3389997 2.6600001 -0.99299997 0
-9.4429998 2.6570001 -1.005 0
-9.5469999 2.654 -1.017 0
-9.6529999 2.6500001 -1.03 0.029999999
-9.7700005 2.6659999 -1.044 0.11
-9.8570004 2.6559999 -1.054 0
-9.9060001 2.6359999 -1.059 0
-10.21 2.681 -1.097 0
-10.284 2.6659999 -1.105 0
-10.548 2.6989999 -1.137 0
-10.62 2.681 -1.145 0
-7.5009999 4.2859998 -0.90600002 0
-7.4910002 4.2480001 -0.90200001 0
-7.4809999 4.2119999 -0.89899999 0
-7.4860001 4.184 -0.898 0
-7.5159998 4.1700001 -0.89999998 0
-7.493 4.1259999 -0.89499998 0.050000001
-7.494 4.0960002 -0.89300001 0.14
-7.4879999 4.0770001 -0.89099997 0.22
-7.5009999 4.0539999 -0.89099997 0.1
-7.4819999 4.013 -0.88700002 0.16
-7.4910002 3.9879999 -0.88599998 0.28
-7.4910002 3.9579999 -0.884 0
-7.4580002 3.9100001 -0.87800002 0
-7.3000002 3.7969999 -0.85299999 0
-7.2880001 3.777 -0.85100001 0.12
-7.2979999 3.753 -0.85000002 0.2
-7.2940001 3.7219999 -0.84799999 0.13
-7.2989998 3.6949999 -0.847 0.36000001
-7.2979999 3.6659999 -0.84500003 0.28999999
-7.2950001 3.6359999 -0.84299999 0.28999999
-7.2940001 3.6070001 -0.84200001 0.28999999
-7.2979999 3.5940001 -0.84100002 0.38
-7.2950001 3.5639999 -0.83899999 0.34
-7.29 3.5339999 -0.83700001 0.34
-7.2870002 3.5039999 -0.83499998 0.33000001
-7.2870002 3.4760001 -0.833 0.33000001
-7.289 3.4489999 -0.83200002 0.31999999
-7.2839999 3.4319999 -0.83099997 0.31999999
-7.2709999 3.398 -0.82700002 0.31999999
-7.2839999 3.3759999 -0.82800001 0.28
-7.2779999 3.346 -0.82499999 0.41
-7.099 3.2360001 -0.79900002 0
-7.277 3.29 -0.82200003 0
-7.2620001 3.256 -0.81900001 0
-7.2659998 3.243 -0.81900001 0
-7.2789998 3.2219999 -0.81900001 0
-7.3080001 3.207 -0.82200003 0
-7.3249998 3.188 -0.82300001 0
-7.375 3.1819999 -0.82800001 0
-7.46 3.191 -0.83899999 0.14
-7.4460001 3.1570001 -0.83499998 0.2
-7.4419999 3.142 -0.83399999 0.2
-7.4419999 3.115 -0.833 0.20999999
-7.434 3.0829999 -0.82999998 0.20999999
-7.4510002 3.063 -0.83099997 0.22
-7.4460001 3.0339999 -0.829 0.2
-7.4549999 3.01 -0.829 0.23
-7.454 2.9820001 -0.82800001 0.2
-7.4530001 2.9679999 -0.82700002 0.27000001
-7.4510002 2.941 -0.82499999 0.11
-7.4580002 2.9159999 -0.82499999 0.14
-7.4580002 2.8889999 -0.824 0.23
-7.4749999 2.869 -0.82499999 0.19
-7.48 2.8440001 -0.824 0.17
-7.4689999 2.813 -0.82200003 0.16
-7.4770002 2.789 -0.82200003 0.1
-7.4889998 2.78 -0.82300001 0.16
-7.4790001 2.75 -0.81999999 0.23999999
-7.5180001 2.737 -0.824 0
-7.5190001 2.711 -0.82300001 0
-7.5440001 2.6930001 -0.82499999 0
-7.586 2.6819999 -0.82999998 0
-7.6259999 2.6819999 -0.83499998 0
-7.6960001 2.6800001 -0.84299999 0
-7.7550001 2.6730001 -0.85000002 0
-7.7880001 2.6570001 -0.85299999 0
-7.8649998 2.6570001 -0.86299998 0
-7.915 2.6459999 -0.86799997 0
-7.987 2.642 -0.87699997 0
-8.0459995 2.648 -0.884 0
-8.118 2.6440001 -0.89300001 0
-8.1960001 2.641 -0.90200001 0
-8.3310003 2.6559999 -0.91900003 0
-8.4250002 2.6570001 -0.93099999 0
-8.5179996 2.6570001 -0.94199997 0
-8.5950003 2.652 -0.95099998 0
-8.6730003 2.661 -0.96100003 0
-8.7679996 2.661 -0.97299999 0
-8.8509998 2.6559999 -0.98299998 0
-8.948 2.655 -0.995 0
-9.052 2.655 -1.007 0
-9.1820002 2.6619999 -1.023 0
-9.2449999 2.6489999 -1.031 0
-9.3549995 2.6489999 -1.044 0
-9.4350004 2.6559999 -1.054 0
-9.533 2.651 -1.066 0
-9.6750002 2.6589999 -1.084 0
-9.7159996 2.6370001 -1.0880001 0.1
-9.7869997 2.6240001 -1.097 0
-10.003 2.648 -1.124 0
-10.078 2.651 -1.1339999 0
-10.184 2.645 -1.147 0.07
-10.298 2.641 -1.16 0.090000004
-10.537 2.6670001 -1.191 0.15000001
-7.52 4.2880001 -0.96799999 0
-7.5139999 4.2540002 -0.96600002 0
-7.507 4.2340002 -0.963 0.07
-7.5029998 4.2010002 -0.96100003 0
-7.5079999 4.1719999 -0.95899999 0
-7.5289998 4.1539998 -0.96100003 0
-7.5689998 4.1440001 -0.96499997 0
-7.5869999 4.1230001 -0.96600002 0
-7.5770001 4.0869999 -0.96200001 0
-7.5609999 4.0630002 -0.95899999 0
-7.559 4.0320001 -0.95599997 0
-7.5630002 4.0029998 -0.95499998 0
-7.572 3.9779999 -0.95499998 0
-7.5599999 3.941 -0.95099998 0
-7.4679999 3.8640001 -0.935 0
-7.3639998 3.7809999 -0.917 0.079999998
-7.3600001 3.75 -0.91500002 0.079999998
-7.368 3.7390001 -0.91500002 0.18000001
-7.3790002 3.7160001 -0.91500002 0.12
-7.3839998 3.6889999 -0.91399997 0.15000001
-7.381 3.6589999 -0.912 0.52999997
-7.3730001 3.6259999 -0.90899998 0.25
-7.3649998 3.5940001 -0.90600002 0.27000001
-7.3559999 3.575 -0.90399998 0.31
-7.3569999 3.5469999 -0.90200001 0.31999999
-7.3569999 3.5190001 -0.90100002 0.31999999
-7.3460002 3.4860001 -0.898 0.31999999
-7.3520002 3.46 -0.89700001 0.34
-7.3540001 3.4330001 -0.89600003 0.30000001
-7.3520002 3.404 -0.89399999 0.28999999
-7.3460002 3.3870001 -0.89200002 0.44999999
-7.3530002 3.3629999 -0.89200002 0
-7.3460002 3.3310001 -0.889 0
-7.3439999 3.303 -0.88700002 0
-7.3340001 3.2709999 -0.884 0
-7.368 3.2579999 -0.88800001 0
-7.3730001 3.2320001 -0.88700002 0
-7.4089999 3.234 -0.89099997 0
-7.473 3.234 -0.89899999 0
-7.5440001 3.2360001 -0.90799999 0
-7.5250001 3.2 -0.90399998 0.13
-7.5180001 3.1700001 -0.90100002 0.090000004
-7.5209999 3.1429999 -0.89999998 0.15000001
-7.5310001 3.1199999 -0.89999998 0.17
-7.5320001 3.1059999 -0.89999998 0.16
-7.5209999 3.0739999 -0.89700001 0.1
-7.52 3.046 -0.89499998 0.16
-7.5180001 3.0179999 -0.89399999 0.30000001
-7.5279999 2.9949999 -0.89399999 0.19
-7.5219998 2.9649999 -0.89200002 0.23
-7.5209999 2.937 -0.88999999 0.2
-7.527 2.9260001 -0.88999999 0
-7.5700002 2.915 -0.89499998 0
-7.579 2.891 -0.89499998 0
-7.5879998 2.868 -0.89499998 0
-7.5580001 2.829 -0.889 0
-7.5650001 2.8050001 -0.889 0
-7.5770001 2.7820001 -0.88999999 0
-7.572 2.767 -0.88800001 0
-7.5830002 2.744 -0.889 0
-7.6059999 2.7260001 -0.89099997 0
-7.6539998 2.7149999 -0.89600003 0
-7.7059999 2.7060001 -0.90200001 0
-7.7849998 2.707 -0.91299999 0
-7.836 2.6830001 -0.91799998 0.13
-7.8979998 2.6760001 -0.926 0.15000001
-8.4180002 2.8210001 -0.99800003 0.17
-8.4099998 2.789 -0.99599999 0.16
-8.3950005 2.7550001 -0.99299997 0.13
-8.3179998 2.701 -0.98100001 0
-8.3059998 2.668 -0.97799999 0
-8.3199997 2.658 -0.97899997 0
-8.4560003 2.6719999 -0.99699998 0
-8.5819998 2.6819999 -1.0140001 0
-8.6739998 2.681 -1.025 0
-8.7559996 2.6760001 -1.036 0
-8.8199997 2.665 -1.044 0
-8.9020004 2.6589999 -1.054 0
-8.9829998 2.6670001 -1.0650001 0
-9.0880003 2.6670001 -1.0779999 0
-9.191 2.6659999 -1.092 0
-9.2819996 2.6600001 -1.103 0
-9.3929996 2.6600001 -1.118 0
-9.507 2.6600001 -1.132 0
-9.5950003 2.668 -1.1440001 0
-9.7030001 2.665 -1.158 0.039999999
-9.8070002 2.6600001 -1.171 0.17
-9.8690004 2.6429999 -1.179 0.2
-10.065 2.6619999 -1.205 0.17
-10.213 2.6659999 -1.225 0.16
-10.366 2.671 -1.245 0.15000001
-10.418 2.6670001 -1.251 0.14
-10.524 2.658 -1.265 0.13
-7.54 4.3169999 -1.0319999 0.81999999
-7.4809999 4.2519999 -1.02 0.99000001
-7.4720001 4.2160001 -1.016 0.99000001
-7.5100002 4.2059999 -1.02 0.73000002
-7.7150002 4.289 -1.051 0
-7.5190001 4.1490002 -1.017 0
-7.507 4.0960002 -1.012 0
-7.5180001 4.072 -1.012 0
-7.513 4.039 -1.0089999 0
-7.5170002 4.0100002 -1.008 0
-7.5 3.971 -1.003 0
-7.5050001 3.9579999 -1.003 0
-7.48 3.915 -0.99699998 0
-7.487 3.8889999 -0.99599999 0
-7.461 3.845 -0.99000001 0
-7.3460002 3.756 -0.97000003 0
-7.3169999 3.7130001 -0.963 0
-7.3400002 3.6949999 -0.96499997 0
-7.3210001 3.671 -0.96100003 0
-7.3249998 3.6440001 -0.95999998 0
-7.329 3.618 -0.95899999 0
-7.3530002 3.6010001 -0.96100003 0
-7.3249998 3.559 -0.95499998 0
-7.3169999 3.526 -0.95200002 0
-7.3280001 3.503 -0.95200002 0
-7.3509998 3.5 -0.954 0
-7.3249998 3.4590001 -0.94800001 0
-7.3280001 3.4330001 -0.94700003 0
-7.3169999 3.4000001 -0.94400001 0
-7.3239999 3.3469999 -0.94199997 0
-7.3109999 3.2709999 -0.93599999 0
-7.3460002 3.26 -0.93900001 0
-7.3649998 3.2409999 -0.94099998 0
-7.5040002 3.2460001 -0.95899999 0
-7.4899998 3.2119999 -0.95499998 0
-7.4949999 3.2 -0.95499998 0
-7.4689999 3.161 -0.94999999 0
-7.4679999 3.1329999 -0.94800001 0
-7.4850001 3.112 -0.949 0
-7.4780002 3.082 -0.94700003 0
-7.4910002 3.0599999 -0.94700003 0
-7.5120001 3.0409999 -0.949 0
-7.4980001 3.0220001 -0.94599998 0
-7.5019999 2.9960001 -0.94499999 0
-7.4840002 2.961 -0.94099998 0
-7.4860001 2.9349999 -0.94 0
-7.4899998 2.9089999 -0.93900001 0
-7.4400001 2.8629999 -0.93000001 0
-7.4510002 2.8399999 -0.93000001 0
-7.4879999 2.8410001 -0.93599999 0
-7.4450002 2.7980001 -0.92799997 0.07
-7.4889998 2.7880001 -0.93300003 0
-7.4699998 2.7539999 -0.92900002 0
-7.4970002 2.737 -0.93199998 0
-7.7529998 2.6800001 -0.963 0
-7.7589998 2.655 -0.963 0
-8.3730001 2.8380001 -1.053 0
-8.4060001 2.8199999 -1.057 0
-8.3959999 2.802 -1.0549999 0
-8.408 2.777 -1.0549999 0
-8.3940001 2.743 -1.052 0
-8.3369999 2.6949999 -1.0420001 0
-8.3339996 2.665 -1.04 0
-8.3409996 2.638 -1.04 0
-9.7130003 2.645 -1.227 0
-9.809 2.655 -1.24 0
-9.9469995 2.6589999 -1.2589999 0
-10.083 2.6619999 -1.278 0
-10.258 2.675 -1.303 0
-10.37 2.6689999 -1.318 0
-10.444 2.6530001 -1.327 0
-7.494 4.296 -1.064 0
-7.5159998 4.277 -1.0650001 0
-7.5149999 4.2459998 -1.063 0
-7.4850001 4.198 -1.0549999 0
-7.4949999 4.1729999 -1.0549999 0
-7.5029998 4.1620002 -1.0549999 0
-7.5300002 4.1459999 -1.058 0
-7.5430002 4.1220002 -1.058 0
-7.5250001 4.0819998 -1.052 0
-7.5320001 4.0549998 -1.051 0
-7.5219998 4.0190001 -1.048 0
-7.5229998 3.9890001 -1.046 0
-7.5170002 3.971 -1.044 0
-7.5240002 3.9449999 -1.043 0
-7.5219998 3.914 -1.04 0
-7.5149999 3.8800001 -1.0369999 0
-7.5110002 3.849 -1.035 0
-7.4369998 3.7809999 -1.021 0
-7.3600001 3.714 -1.006 0
-7.336 3.687 -1.001 0
-7.3400002 3.6600001 -1 0
-7.3460002 3.635 -0.99900001 0
-7.3309999 3.599 -0.995 0
-7.3369999 3.573 -0.99400002 0
-7.3470001 3.549 -0.99400002 0
-7.336 3.516 -0.99000001 0
-7.329 3.4979999 -0.98799998 0
-7.3379998 3.474 -0.98799998 0
-7.3400002 3.447 -0.986 0
-7.335 3.4170001 -0.98400003 0
-7.3260002 3.385 -0.98100001 0
-7.3379998 3.362 -0.98100001 0
-7.3429999 3.3369999 -0.98000002 0
-7.3559999 3.329 -0.98100001 0
-7.3499999 3.2980001 -0.97899997 0.059999999
-7.3909998 3.289 -0.98400003 0
-7.4520001 3.2880001 -0.99199998 0
-7.52 3.289 -1.001 0
-7.5289998 3.2650001 -1.001 0
-7.4990001 3.224 -0.99400002 0
-7.5 3.211 -0.99400002 0
-7.5029998 3.184 -0.99199998 0
-7.4970002 3.154 -0.99000001 0.11
-7.4850001 3.1210001 -0.986 0.14
-7.5159998 3.1070001 -0.99000001 0.33000001
-7.533 3.086 -0.991 0.25999999
-7.5469999 3.0639999 -0.99199998 0.5
-7.566 3.0580001 -0.99400002 0.40000001
-7.4250002 2.974 -0.97000003 0
-7.5339999 2.99 -0.986 0.13
-7.5339999 2.9630001 -0.98400003 0.23
-7.527 2.9330001 -0.98199999 0.25
-7.4450002 2.8469999 -0.96600002 0.20999999
-7.4569998 2.8380001 -0.96700001 0.56999999
-7.4619999 2.8139999 -0.96700001 0.63999999
-7.4619999 2.7869999 -0.96499997 0.69
-7.4050002 2.7390001 -0.95499998 0.54000002
-7.4749999 2.7379999 -0.96499997 0
-7.5019999 2.7219999 -0.96799999 0
-7.5310001 2.7179999 -0.97100002 0
-7.5900002 2.7130001 -0.97899997 0
-7.645 2.7049999 -0.986 0
-7.7059999 2.6989999 -0.99400002 0
-7.763 2.6919999 -1.002 0.12
-7.777 2.6689999 -1.003 0
-7.9619999 2.704 -1.03 0
-8.0539999 2.721 -1.044 0
-8.1129999 2.7130001 -1.051 0.059999999
-8.434 2.789 -1.099 0.15000001
-8.4519997 2.766 -1.101 0.13
-8.4420004 2.733 -1.098 0.15000001
-8.3879995 2.687 -1.0880001 0.16
-8.3800001 2.655 -1.086 0
-8.474 2.6700001 -1.1 0
-8.5889997 2.6760001 -1.1160001 0
-8.6730003 2.6719999 -1.127 0
-8.7700005 2.6719999 -1.141 0
-8.8299999 2.6600001 -1.149 0
-8.9329996 2.6600001 -1.163 0
-9.0480003 2.6630001 -1.179 0
-9.1350002 2.6730001 -1.192 0
-9.2410002 2.6719999 -1.207 0
-9.3459997 2.6700001 -1.222 0
-9.4309998 2.6619999 -1.233 0
-9.552 2.664 -1.25 0
-9.6610003 2.661 -1.266 0
-9.7589998 2.655 -1.279 0
-9.8310003 2.641 -1.289 0
-9.9899998 2.6670001 -1.312 0.07
-10.119 2.6670001 -1.33 0.14
-10.277 2.674 -1.353 0.16
-10.387 2.6670001 -1.368 0.15000001
-10.474 2.654 -1.38 0.27000001
-7.5110002 4.2950001 -1.128 0
-7.4879999 4.2509999 -1.122 0
-7.4829998 4.2160001 -1.118 0.15000001
-7.5120001 4.2020001 -1.1210001 0
-7.5370002 4.1849999 -1.123 0
-7.533 4.151 -1.12 0.090000004
-7.546 4.1279998 -1.12 0.20999999
-7.5300002 4.1040001 -1.1160001 0.11
-7.5320001 4.0739999 -1.114 0.15000001
-7.533 4.0440001 -1.112 0.16
-7.5100002 4.0019999 -1.1059999 0.1
-7.5180001 3.9749999 -1.105 0.090000004
-7.5279999 3.951 -1.105 0.14
-7.5149999 3.9130001 -1.1 0.23
-7.5079999 3.895 -1.098 0.11
-7.5170002 3.869 -1.098 0.16
-7.5009999 3.8310001 -1.0930001 0.1
-7.5100002 3.806 -1.092 0.15000001
-7.5159998 3.78 -1.091 0.20999999
-7.4120002 3.697 -1.071 0.1
-7.3509998 3.638 -1.059 0
-7.3330002 3.615 -1.0549999 0
-7.3499999 3.595 -1.056 0
-7.3330002 3.5580001 -1.051 0
-7.3390002 3.5320001 -1.05 0
-7.3299999 3.4990001 -1.0470001 0
-7.3520002 3.4809999 -1.049 0
-7.336 3.4460001 -1.044 0.059999999
-7.3449998 3.4360001 -1.045 0.14
-7.348 3.4089999 -1.043 0.1
-7.3540001 3.3840001 -1.0420001 0.19
-7.3610001 3.359 -1.0420001 0.11
-7.434 3.365 -1.052 0.15000001
-7.5240002 3.3770001 -1.066 0.17
-7.4889998 3.3329999 -1.058 0.1
-7.487 3.3180001 -1.057 0.090000004
-7.4889998 3.2909999 -1.056 0.14
-7.494 3.2650001 -1.0549999 0.23
-7.5019999 3.24 -1.054 0.25
-7.494 3.2090001 -1.051 0.23999999
-7.5079999 3.187 -1.052 0.25
-7.5029998 3.1570001 -1.049 0.25999999
-7.4899998 3.138 -1.046 0.11
-7.4920001 3.1110001 -1.045 0.17
-7.5019999 3.0880001 -1.045 0.12
-7.4970002 3.0580001 -1.043 0.16
-7.507 3.0339999 -1.043 0.12
-7.4980001 3.003 -1.04 0.17
-7.506 2.993 -1.04 0.28999999
-7.5050001 2.9649999 -1.039 0.2
-7.5079999 2.9389999 -1.038 0.18000001
-7.4640002 2.868 -1.027 0.22
-7.329 2.789 -1.0039999 0.99000001
-7.3060002 2.7539999 -0.99900001 0.99000001
-7.2350001 2.714 -0.986 0.99000001
-7.336 2.7260001 -1.001 0.81999999
-7.6719999 2.825 -1.0549999 0
-7.4959998 2.7320001 -1.025 0
-7.5339999 2.7190001 -1.029 0
-7.5689998 2.7049999 -1.034 0
-7.638 2.7030001 -1.044 0.07
-7.724 2.6930001 -1.056 0.31
-7.7750001 2.684 -1.062 0
-7.9239998 2.7079999 -1.085 0
-7.9749999 2.697 -1.092 0.07
-8.0509996 2.6949999 -1.103 0.14
-8.118 2.6889999 -1.112 0
-8.2010002 2.7030001 -1.125 0.11
-8.474 2.7639999 -1.168 0.22
-8.4320002 2.721 -1.16 0.19
-8.4119997 2.6849999 -1.155 0
-8.4280005 2.661 -1.156 0
-8.559 2.674 -1.176 0
-8.6730003 2.6800001 -1.193 0
-8.7609997 2.677 -1.206 0
-8.8330002 2.684 -1.217 0
-8.9219999 2.681 -1.23 0
-9.0120001 2.677 -1.243 0
-9.1099997 2.675 -1.257 0
-9.2189999 2.6760001 -1.273 0
-9.3330002 2.678 -1.29 0
-9.4549999 2.697 -1.309 0
-9.5780001 2.7 -1.327 0.050000001
-9.7060003 2.704 -1.346 0.14
-9.7889996 2.694 -1.358 0.23999999
-9.849 2.677 -1.3660001 0.090000004
-9.9219999 2.664 -1.376 0.14
-7.5469999 4.2119999 -1.247 0.029999999
-7.5430002 4.1789999 -1.244 0
-7.5440001 4.1490002 -1.242 0.029999999
-7.5430002 4.1329999 -1.24 0.029999999
-7.5700002 4.1170001 -1.243 0.07
-7.5650001 4.0840001 -1.24 0.079999998
-7.5539999 4.0469999 -1.235 0.039999999
-7.5469999 4.013 -1.232 0.07
-7.5409999 3.9790001 -1.229 0.039999999
-7.5359998 3.9460001 -1.225 0.07
-7.5279999 3.927 -1.223 0.039999999
-7.5279999 3.8970001 -1.221 0.07
-7.5120001 3.859 -1.216 0.039999999
-7.52 3.8340001 -1.215 0.07
-7.52 3.8039999 -1.2130001 0.079999998
-7.507 3.7679999 -1.2079999 0.039999999
-7.5149999 3.743 -1.2079999 0.07
-7.4959998 3.7190001 -1.2029999 0.039999999
-7.4889998 3.6860001 -1.2 0.039999999
-7.4910002 3.658 -1.198 0.039999999
-7.506 3.6359999 -1.199 0.07
-7.4910002 3.5999999 -1.194 0.039999999
-7.4949999 3.573 -1.193 0.07
-7.487 3.54 -1.1900001 0.039999999
-7.4780002 3.5209999 -1.187 0.15000001
-7.487 3.497 -1.187 0.18000001
-7.5469999 3.467 -1.193 0.49000001
-7.4780002 3.408 -1.1799999 0.99000001
-7.4759998 3.378 -1.177 0.99000001
-7.474 3.349 -1.175 0.99000001
-7.5910001 3.3870001 -1.1950001 0.85000002
-7.4720001 3.306 -1.1720001 0.99000001
-7.4660001 3.276 -1.169 0.99000001
-7.4429998 3.2379999 -1.164 0.99000001
-7.4569998 3.2160001 -1.164 0.99000001
-7.4689999 3.1930001 -1.165 0.99000001
-7.4460001 3.1559999 -1.159 0.99000001
-7.4679999 3.151 -1.1619999 0.99000001
-7.4569998 3.1199999 -1.158 0.99000001
-7.4860001 3.1040001 -1.161 0.94999999
-7.4590001 3.0650001 -1.155 0.99000001
-7.4770002 3.0450001 -1.1569999 0.94999999
-7.4369998 3.0020001 -1.148 0.99000001
-7.4429998 2.977 -1.148 0.99000001
-7.4310002 2.9590001 -1.145 0.99000001
-7.4330001 2.9330001 -1.1440001 0.99000001
-7.6669998 2.997 -1.182 0.77999997
-7.402 2.8670001 -1.135 0
-7.4809999 2.8699999 -1.147 0.12
-7.4450002 2.8299999 -1.1390001 0.050000001
-7.4429998 2.803 -1.138 0.16
-7.4489999 2.7920001 -1.138 0.050000001
-7.454 2.767 -1.137 0.16
-7.4559999 2.7409999 -1.136 0.050000001
-7.4770002 2.7219999 -1.138 0
-7.5190001 2.71 -1.1440001 0
-7.5630002 2.6989999 -1.15 0
-7.573 2.6760001 -1.15 0
-7.6500001 2.6900001 -1.1619999 0.12
-7.711 2.684 -1.171 0.18000001
-7.7680001 2.6760001 -1.179 0.039999999
-7.836 2.6719999 -1.189 0.13
-8.1560001 2.7509999 -1.2410001 0.28
-8.1470003 2.72 -1.239 0.23999999
-8.1330004 2.701 -1.235 0.33000001
-8.1599998 2.681 -1.239 0.16
-8.2189999 2.6719999 -1.247 0.20999999
-8.2819996 2.6630001 -1.256 0.2
-8.4580002 2.6900001 -1.284 0.23
-8.4700003 2.665 -1.285 0
-8.7089996 2.7090001 -1.323 0
-8.8269997 2.73 -1.342 0
-8.8940001 2.72 -1.352 0
-7.723 4.2659998 -1.363 0.029999999
-7.723 4.2340002 -1.36 0.039999999
-7.7249999 4.204 -1.358 0.07
-7.7199998 4.1690001 -1.354 0.039999999
-7.7399998 4.1490002 -1.3559999 0.14
-7.7509999 4.1389999 -1.357 0.19
-7.665 4.0619998 -1.3380001 0.039999999
-7.5910001 3.9920001 -1.321 0.07
-7.5910001 3.9619999 -1.319 0.039999999
-7.6069999 3.9389999 -1.319 0.039999999
-7.6230001 3.9170001 -1.3200001 0.039999999
-7.6230001 3.8870001 -1.318 0.07
-7.6220002 3.872 -1.316 0.15000001
-7.6269999 3.8440001 -1.3150001 0.22
-7.6370001 3.819 -1.3150001 0.2
-7.651 3.796 -1.3150001 0.23999999
-7.6259999 3.7539999 -1.308 0.18000001
-7.6300001 3.7260001 -1.307 0.25
-7.6279998 3.6949999 -1.304 0.25
-7.632 3.6819999 -1.304 0.23
-7.6040001 3.6389999 -1.296 0.22
-7.5599999 3.589 -1.286 0.039999999
-7.5339999 3.5480001 -1.279 0.16
-7.553 3.527 -1.28 0.15000001
-7.6059999 3.5239999 -1.288 0.28999999
-7.5960002 3.49 -1.284 0.22
-7.5500002 3.454 -1.275 0.23999999
-7.507 3.405 -1.265 0.25
-7.506 3.3770001 -1.263 0.28999999
-7.5079999 3.349 -1.261 0.34
-7.5149999 3.3239999 -1.261 0.37
-7.5240002 3.3 -1.26 0.38999999
-7.5279999 3.2739999 -1.2589999 0.63
-7.5190001 3.256 -1.257 0.76999998
-7.5279999 3.2309999 -1.256 0.81
-7.5409999 3.2090001 -1.257 0.82999998
-7.546 3.1830001 -1.256 0.83999997
-7.559 3.161 -1.257 0.86000001
-7.5689998 3.1370001 -1.257 0.87
-7.5570002 3.1040001 -1.253 0.85000002
-7.467 3.053 -1.235 0.88999999
-7.4530001 3.02 -1.2309999 0.93000001
-7.4520001 2.9920001 -1.229 0.95999998
-7.4499998 2.964 -1.227 0.99000001
-7.4520001 2.938 -1.226 0.99000001
-7.5599999 2.954 -1.244 0.73000002
-7.5009999 2.9170001 -1.232 0.31999999
-7.5009999 2.8889999 -1.23 0.18000001
-7.473 2.852 -1.224 0
-7.474 2.825 -1.222 0
-7.4809999 2.8010001 -1.222 0
-7.4809999 2.7739999 -1.22 0
-7.5149999 2.76 -1.225 0
-7.5120001 2.7460001 -1.224 0
-7.5430002 2.73 -1.228 0.029999999
-7.6110001 2.7279999 -1.238 0.12
-7.6859999 2.7279999 -1.25 0.039999999
-7.7020001 2.7060001 -1.252 0.07
-7.7129998 2.6830001 -1.252 0.039999999
-7.7729998 2.677 -1.261 0.12
-7.848 2.6889999 -1.274 0.11
-8.0349998 2.697 -1.304 0.30000001
-8.0810003 2.6849999 -1.311 0.13
-8.1899996 2.6930001 -1.329 0.27000001
-8.2320004 2.678 -1.335 0.30000001
-8.2860003 2.6670001 -1.3430001 0
-8.4680004 2.7119999 -1.374 0
-7.3049998 3.5409999 -1.3150001 0.18000001
-7.302 3.5120001 -1.313 0.19
-7.309 3.487 -1.312 0.20999999
-7.3590002 3.4820001 -1.3200001 0.050000001
-7.5770001 3.556 -1.36 0.17
-7.6040001 3.539 -1.363 0.2
-7.6040001 3.5250001 -1.362 0.19
-7.6069999 3.497 -1.3609999 0.13
-7.573 3.4530001 -1.352 0.18000001
-7.5819998 3.428 -1.351 0.050000001
-7.5869999 3.402 -1.35 0.17
-7.5830002 3.372 -1.348 0.2
-7.5689998 3.3369999 -1.3430001 0.20999999
-7.5700002 3.323 -1.342 0.22
-7.5700002 3.2950001 -1.34 0.16
-7.5689998 3.266 -1.3380001 0.20999999
-7.5869999 3.2460001 -1.339 0.11
-7.579 3.214 -1.336 0.17
-7.5739999 3.184 -1.3329999 0.050000001
-7.5749998 3.1570001 -1.331 0.16
-7.5640001 3.138 -1.3279999 0.050000001
-7.5619998 3.1099999 -1.326 0.16
-7.5760002 3.0880001 -1.327 0.2
-7.585 3.0639999 -1.327 0.039999999
-7.6570001 3.0650001 -1.339 0.14
-7.77 3.0810001 -1.358 0.28999999
-7.77 3.053 -1.3559999 0.27000001
-7.7509999 3.0309999 -1.352 0.30000001
-7.7379999 2.9990001 -1.348 0.25
-7.9250002 2.9560001 -1.376 0.050000001
-7.698 2.845 -1.331 0.14
-7.6989999 2.8180001 -1.33 0.16
-7.6869998 2.8 -1.327 0.17
-7.6789999 2.77 -1.324 0.039999999
-7.697 2.7490001 -1.325 0.15000001
-7.6919999 2.72 -1.323 0.2
-7.7069998 2.698 -1.324 0.16
-7.7280002 2.678 -1.326 0.17
-7.7839999 2.684 -1.336 0.20999999
-7.8800001 2.6889999 -1.353 0.12
-8.0010004 2.7019999 -1.373 0.18000001
-7.3130002 3.506 -1.374 0
-7.329 3.5 -1.376 0
-7.5929999 2.905 -1.378 0
-7.5760002 2.8840001 -1.373 0
-7.5320001 2.8399999 -1.363 0
-7.6420002 2.773 -1.378 0
-7.6459999 2.747 -1.377 0
-7.652 2.7360001 -1.377 0
-7.638 2.704 -1.373 0
