# .PCD v0.7 - Point Cloud Data file format
VERSION 0.7
FIELDS x y z intensity
SIZE 4 4 4 4
TYPE F F F F
COUNT 1 1 1 1
WIDTH 1237
HEIGHT 1
VIEWPOINT 0 0 0 1 0 0 0
POINTS 1237
DATA ascii
2.3411467 1.3847314 -0.60798311 0
2.2845714 1.3777028 -0.61299998 0
2.3737762 1.4088298 -0.73309994 0
2.2972968 1.4630619 -0.70612913 0
2.3432517 1.4813503 -0.67715555 0
2.3927824 1.6410364 -0.71462315 0.039999999
2.3490613 1.5574219 -0.72392601 0.15000001
2.3753178 1.5823246 -0.74295837 0.20999999
2.3114109 1.5393914 -0.68837714 0.12
2.2826025 1.5946137 -0.759 0.20999999
2.374948 1.6265634 -0.74290341 0.11
2.3429923 1.604561 -0.64700001 0.18000001
2.3665433 1.6492041 -0.6773445 0.14
2.278568 1.6000406 -0.72437954 0.47999999
2.3761687 1.6466448 -0.759 0.18000001
2.3408608 1.641898 -0.72497749 0.17
2.3751676 1.5986891 -0.64422631 0.33000001
2.3836753 1.6617967 -0.76599997 0.50999999
2.3886087 1.6869636 -0.76109427 0.43000001
2.2772737 1.6655624 -0.72037393 0.43000001
2.279269 1.6478064 -0.76499999 0.41
2.286077 1.7139574 -0.71268964 0.46000001
2.2424023 1.7243817 -0.7091462 0.36000001
2.3233619 1.670175 -0.66955757 0.28
2.3671932 1.6861399 -0.68501091 0.23
2.2825632 1.7393109 -0.7286014 0.22
2.2783141 1.7331132 -0.70401734 0.050000001
2.3026614 1.7404149 -0.778 0
2.3444891 1.693213 -0.70809919 0
2.2608151 1.7235708 -0.77600002 0
2.3676229 1.9120823 -0.7474705 0
2.3278053 1.8796287 -0.77919716 0
2.3154633 1.8339792 -0.72248244 0
2.3226066 1.8759272 -0.76610172 0
2.247412 1.8312795 -0.79079241 0
2.2542119 1.8756671 -0.73495173 0
2.2067757 1.8575735 -0.76150721 0
2.2835135 1.9214913 -0.73272645 0
2.3103902 1.8742782 -0.71792966 0
2.2003012 1.8767657 -0.7416023 0
2.222805 1.9811697 -0.77247775 0
2.2861519 1.9444854 -0.79216617 0
2.2123349 2.0348589 -0.78860104 0
2.2851129 1.9336002 -0.71544987 0
2.2095912 1.9664154 -0.7638728 0
2.3099215 2.0153375 -0.70594591 0
2.312567 2.0613997 -0.73838532 0
2.287972 2.0685062 -0.71001971 0
2.2651145 1.9992511 -0.70099998 0
2.3180828 2.0689185 -0.75758481 0
2.305202 2.131424 -0.72175038 0
2.22387 2.0830462 -0.73911613 0
2.2104468 2.1332998 -0.77415097 0
2.2086651 2.1148388 -0.8238129 0
2.2265387 2.0577326 -0.79989642 0
2.2898588 2.1035531 -0.75683618 0
2.2350872 2.1253984 -0.83899999 0
2.2541003 2.1435604 -0.80221641 0
2.2770333 2.1375091 -0.77793443 0
2.2684753 2.2174771 -0.81649631 0
2.2803047 2.237654 -0.80908233 0
2.2533646 2.2300346 -0.74671566 0
2.2221014 2.2385046 -0.74299997 0
2.2499247 2.1986549 -0.76849359 0
2.2640302 2.281677 -0.82636207 0
2.3122699 2.306695 -0.82308888 0
2.2507088 2.2784069 -0.81455743 0
2.230355 2.3351972 -0.78859138 0
2.3317847 2.3852901 -0.87191427 0
2.3452315 2.3263457 -0.76800001 0
2.341861 2.4058595 -0.82010037 0
2.2543409 2.381979 -0.83422977 0
2.2623179 2.3795867 -0.77600002 0
2.2773683 2.4163852 -0.83419502 0
2.2404661 2.385803 -0.85551494 0
2.2282367 2.3957989 -0.86702776 0
2.3436925 2.3990786 -0.88729781 0
2.2950544 2.4372108 -0.89583534 0
2.2508957 2.4513726 -0.89612472 0
2.3386576 2.5057416 -0.84648281 0
2.3122981 2.5335348 -0.82630759 0
2.2543745 2.5486414 -0.92400002 0
2.3040433 2.4980929 -0.82150126 0
2.3444993 2.5601227 -0.81 0
2.3289142 2.6299164 -0.89763653 0
2.2571428 2.6284189 -0.82676089 0
2.3097239 2.5940795 -0.9388535 0
2.2694016 2.5790362 -0.84770697 0
2.323277 2.6316094 -0.9272247 0
2.3786063 2.6659365 -0.88136268 0
2.3172574 2.712898 -0.95693338 0.0099999998
3.4884923 -0.1660828 -0.96499997 0.050000001
3.3572724 -0.16854984 -0.91977531 0
3.3750606 -0.20635223 -0.90497941 0
3.3487597 -0.22039191 -0.88086581 0
3.3674157 -0.23450807 -0.88558084 0
3.272325 -0.14299801 -0.89437866 0
3.3919735 -0.19640486 -0.90587032 0
3.2474024 -0.084946707 -0.88667148 0
3.3491311 -0.10045191 -0.80199999 0
3.2950099 -0.17962711 -0.871692 0
3.3306201 -0.13746898 -0.84017891 0
3.2519948 -0.10638168 -0.84607702 0
3.3234236 -0.12938775 -0.88292766 0
3.2743363 -0.095602691 -0.91000003 0
3.318208 -0.028301099 -0.88094455 0
3.2464447 -0.060416143 -0.79100001 0
3.3241227 -0.048357978 -0.88400745 0
3.2098889 0.0061114081 -0.82222325 0
3.226131 -0.058374852 -0.81080818 0
3.270232 -0.050563969 -0.81659997 0.050000001
3.2452095 -0.015607069 -0.89199328 0
3.3064041 -0.033941768 -0.86846715 0
3.2443631 -0.012138971 -0.8300885 0
3.2208691 -0.047177531 -0.82097352 0
3.157316 0.048122853 -0.80966735 0
3.1544316 0.0077927089 -0.84603328 0.07
3.261637 0.0099142054 -0.81886065 0.14
3.1290927 0.029919533 -0.79721868 0.039999999
3.217972 0.086753428 -0.80244052 0.079999998
3.2358038 0.062343102 -0.82766491 0.079999998
3.1618981 0.06236323 -0.78816855 0.19
3.1418033 0.14824092 -0.78755283 0.2
3.1626985 0.1366189 -0.77154058 0.14
3.1789474 0.10991848 -0.78509706 0.090000004
3.1840744 0.099316888 -0.82778567 0.090000004
3.2216895 0.062038418 -0.7690872 0.090000004
3.1823633 0.12582897 -0.79952574 0.090000004
3.1888664 0.17899281 -0.8499738 0.079999998
3.14784 0.10137197 -0.78087175 0.14
3.0758097 0.1773701 -0.81016427 0.23
3.0984888 0.22584058 -0.80317533 0.1
3.1108034 0.14713201 -0.81034571 0.079999998
3.0770221 0.22351176 -0.87300003 0.079999998
3.120141 0.25441265 -0.80223191 0.079999998
3.0701256 0.15670758 -0.81726444 0
3.0858421 0.20828408 -0.79149926 0.12
3.1141701 0.16188273 -0.80233884 0.050000001
3.0613968 0.20350091 -0.74299997 0.15000001
3.0834854 0.23463427 -0.75209749 0
3.0267153 0.26407239 -0.85799998 0
3.0711122 0.31381762 -0.73100001 0
3.0830722 0.26254529 -0.74002141 0
3.0989878 0.21151976 -0.79073107 0
2.9918747 0.25218904 -0.82551247 0
2.991487 0.34885222 -0.74536163 0.029999999
3.0439279 0.27287731 -0.77337801 0
3.0230427 0.34469053 -0.81145036 0.11
3.0613341 0.32026482 -0.78931326 0.050000001
2.9728606 0.38257989 -0.81144363 0.14
2.9639552 0.37336934 -0.7858507 0.22
3.0183761 0.33431032 -0.81827688 0.1
3.0213768 0.40858582 -0.77128887 0
2.9748635 0.34929186 -0.83961928 0
2.9940577 0.34500659 -0.75739884 0
2.993757 0.34666532 -0.74868476 0.050000001
2.9680879 0.32107648 -0.83499998 0.14
2.9700732 0.37202978 -0.74997461 0.039999999
2.9557652 0.46155214 -0.74771601 0.14
2.9752116 0.39346132 -0.83399999 0.2
2.985441 0.36887503 -0.83399999 0.1
3.0008781 0.48398975 -0.79628986 0.14
2.9577746 0.42251402 -0.79948479 0.050000001
2.8976912 0.44974416 -0.72885293 0.16
2.9304039 0.46343926 -0.81081253 0.11
2.9496439 0.45601627 -0.81652427 0.13
2.9627097 0.48334432 -0.76753002 0.050000001
2.9934511 0.46408322 -0.75791752 0.16
2.9865916 0.46074218 -0.82200003 0.11
2.9193585 0.4540678 -0.72142065 0.16
2.9465404 0.55442816 -0.77046281 0.12
2.8547359 0.5259099 -0.73004061 0.15000001
2.9076412 0.49076417 -0.78957218 0.25
2.9134781 0.47772205 -0.71288162 0.14
2.8847151 0.54964679 -0.74741161 0.25999999
2.8699417 0.5382905 -0.71642828 0.16
2.9107184 0.60315722 -0.77731872 0.25
2.8735321 0.51667017 -0.71694386 0.14
2.8733497 0.50204468 -0.73339909 0.27000001
2.8619223 0.56561708 -0.73024678 0.14
2.9004493 0.56620491 -0.81199998 0.27000001
2.8213818 0.52414972 -0.72090232 0.15000001
2.8320253 0.56149709 -0.7389459 0.27000001
2.8777156 0.59604764 -0.73619384 0.15000001
2.7999005 0.66571999 -0.73203862 0.27000001
2.8644419 0.59916866 -0.80479693 0.16
2.7939136 0.6161769 -0.79281688 0.28
2.853848 0.65116799 -0.70988786 0.16
2.8054237 0.6426577 -0.72423202 0.14
2.7973952 0.67615199 -0.71078187 0.20999999
2.8453507 0.60449988 -0.69390631 0.14
2.7812338 0.6340155 -0.73653907 0.28
2.794275 0.64275122 -0.72024953 0.16
2.7831521 0.73005646 -0.70095712 0.14
2.7862904 0.62439269 -0.79848963 0.20999999
2.7332668 0.64833724 -0.71951663 0.14
2.8764436 0.70620114 -0.80199999 0.28
2.731631 0.64259249 -0.73817813 0.16
2.7652428 0.6995973 -0.68789786 0.28
2.7751675 0.74389988 -0.72689921 0.16
2.817322 0.68472481 -0.7826153 0.27000001
2.7734222 0.73903233 -0.74783903 0.16
2.7832749 0.76092708 -0.796 0.27000001
2.7538531 0.71984148 -0.75020969 0.15000001
2.779599 0.77891868 -0.70853835 0.25999999
2.7921546 0.75598544 -0.75375682 0.16
2.766572 0.78582627 -0.7521342 0.13
2.8240719 0.76209098 -0.71288711 0.16
2.7874465 0.836604 -0.71825463 0.12
2.8021386 0.75264651 -0.69972962 0.15000001
2.7539485 0.82197285 -0.75731021 0.11
2.7499981 0.77989089 -0.77074134 0.14
2.7164538 0.85182661 -0.78799999 0.050000001
2.7047777 0.79662377 -0.72013879 0.16
2.6822 0.85075068 -0.68221122 0.11
2.7843404 0.82342982 -0.7478711 0.14
2.729351 0.85106134 -0.66500002 0.050000001
2.6732707 0.82375789 -0.66600001 0.15000001
2.6472495 0.80170155 -0.7115292 0.050000001
2.6593635 0.80838436 -0.70041376 0.14
2.7333322 0.85631442 -0.70958906 0.2
2.6893957 0.92877215 -0.76836842 0.090000004
2.6780312 0.93967628 -0.71425843 0.090000004
2.6944559 0.85162354 -0.69332349 0.090000004
2.7591002 0.88752931 -0.77462864 0.090000004
2.7483757 0.96889079 -0.74652088 0.079999998
2.7462759 0.88657355 -0.72761434 0.079999998
2.651787 0.90130478 -0.71881509 0.079999998
2.6854465 1.0000337 -0.69838274 0.039999999
2.7074962 0.90339351 -0.71416265 0.079999998
2.6591871 0.93794429 -0.7375325 0.039999999
2.6856828 0.92355853 -0.67273122 0
2.71509 0.93234485 -0.7711367 0
2.7119758 1.0177442 -0.69886887 0
2.6278667 0.96625865 -0.71259701 0
2.6262743 1.0593131 -0.75134939 0
2.6230662 1.0115683 -0.71761239 0
2.7032299 1.0444943 -0.69008285 0
2.6905353 1.0081804 -0.68939435 0
2.6228514 1.0785929 -0.75428653 0
2.5767286 1.0655094 -0.69301695 0
2.5868442 1.0968217 -0.68262434 0
2.651118 0.98385602 -0.65700001 0
2.6194146 1.0312228 -0.66167521 0
2.6371574 0.99824935 -0.75318456 0
2.6013937 1.0382395 -0.7371316 0
2.5781076 1.0393605 -0.74258912 0
2.6029863 1.0561883 -0.773 0
2.6090481 1.0906615 -0.73598015 0
2.5912929 1.1304423 -0.68036491 0
2.6132927 1.1164348 -0.66612113 0
2.5983903 1.0689276 -0.77600002 0
2.6443732 1.0770811 -0.73475957 0
2.2812696 1.1886328 -0.68073159 0
2.2936587 1.3047366 -0.597 0
2.32024 1.2235547 -0.71354204 0
2.246743 1.3174908 -0.59600002 0
2.3146615 1.2860968 -0.67868513 0
2.2474518 1.2773458 -0.6893512 0
2.2942314 1.3418056 -0.62221587 0
2.2281115 1.300167 -0.71273214 0
2.2719162 1.2926542 -0.72000003 0
2.2695496 1.3355367 -0.60400903 0
2.2440631 1.372419 -0.67408019 0
2.3026531 1.3856729 -0.67400974 0
2.2514236 1.3720862 -0.6256538 0
2.2520545 1.3823086 -0.65112638 0
2.2859669 1.3040367 -0.65363139 0
2.2622333 1.3054142 -0.62971818 0
2.3110156 1.3334519 -0.6236071 0
2.2567167 1.4511086 -0.68843675 0
2.403904 1.5139644 -0.73807305 0
2.3700044 1.5367093 -0.65600002 0
2.3308969 1.5208508 -0.66100001 0
2.2938673 1.5817268 -0.73805642 0
2.3277321 1.5489371 -0.67415547 0
2.3333645 1.6116033 -0.69243383 0.14
2.3400373 1.6213683 -0.78096133 0.16
2.2812982 1.5499561 -0.67782462 0
2.3573735 1.5904413 -0.76258594 0
2.283426 1.6346112 -0.73354852 0.1
2.3042943 1.6090142 -0.69314522 0.20999999
2.3363664 1.7041813 -0.7347278 0.28999999
2.3594472 1.6452241 -0.69794381 0.38999999
2.3321886 1.6566604 -0.66899997 0.37
2.3248053 1.6938758 -0.79299998 0.34999999
2.2777689 1.6583261 -0.787 0.18000001
2.3079035 1.7229414 -0.68910336 0.30000001
2.2623513 1.6905408 -0.72227663 0.19
2.3297129 1.7506042 -0.76252508 0.22
2.2842934 1.6973907 -0.70002782 0
2.2823644 1.7616694 -0.75444847 0
2.3545237 1.7154508 -0.73621821 0
2.2214987 1.7842191 -0.75498003 0
2.2281671 1.8007278 -0.7845428 0
2.2041495 1.7605063 -0.71156245 0
2.2472599 1.7981871 -0.69726628 0
2.229352 1.7561631 -0.6995098 0
2.2947602 1.8190876 -0.72864795 0
2.1929295 1.8343832 -0.72294194 0
2.18542 1.8274149 -0.75124919 0
2.2746837 1.8459727 -0.74991345 0
2.1713159 1.800041 -0.78845608 0
2.1775301 1.8482907 -0.72792763 0
2.1890492 1.9179771 -0.76349384 0
2.2682981 1.9099633 -0.69027084 0
2.289011 1.8139589 -0.68548381 0
2.162797 1.897953 -0.74283099 0
2.195303 1.8727236 -0.68400002 0
2.265691 1.9496595 -0.72613031 0
2.2061353 1.8960204 -0.73181152 0
2.2465727 1.8446714 -0.73402876 0
2.2609541 1.9780096 -0.79068047 0
2.2393873 2.0032768 -0.78215271 0
2.1983869 1.95579 -0.76789212 0
2.2473719 1.9999217 -0.76584959 0
2.1555471 1.9050742 -0.73073256 0
2.1748405 2.0131493 -0.81183743 0
2.1531665 1.9339963 -0.78379107 0
2.1741281 2.0478814 -0.77990609 0
2.192323 1.9427689 -0.79836798 0
2.2109578 1.985965 -0.77717286 0
2.1970561 2.0170937 -0.78782523 0
2.1428986 2.0430114 -0.72462142 0
2.1307414 2.0658226 -0.77656478 0
2.1832035 2.1151285 -0.73919928 0
2.2046626 2.146718 -0.75191092 0
2.2144446 2.1324234 -0.77780426 0
2.155236 2.1861312 -0.7323457 0
2.2267869 2.1733918 -0.78776765 0
2.1690514 2.1659818 -0.81635815 0
2.2427208 2.2097039 -0.80392444 0
2.1717343 2.1864774 -0.82906413 0
2.2525845 2.1378443 -0.76108116 0
2.1744876 2.2345345 -0.7945568 0
2.1972034 2.1649144 -0.76751375 0
2.2467136 2.2585187 -0.75949723 0
2.2174518 2.2139571 -0.81812412 0
2.1835263 2.3917735 -0.78600001 0
2.3064768 2.3864701 -0.84219283 0
2.2636261 2.4256496 -0.80199999 0
2.2333665 2.4236212 -0.82550371 0
2.2747247 2.5015943 -0.84089535 0
2.2694762 2.4635367 -0.81594568 0
2.239608 2.5768301 -0.88383782 0
3.3796167 -0.081017748 -0.96414477 0
3.3600047 -0.060290836 -0.88656336 0
3.2332952 -0.10460841 -0.95899999 0
3.3287511 -0.055384904 -0.92000073 0
3.3288369 -0.051098686 -0.85555243 0
3.3252594 -0.022212671 -0.84010756 0
3.3030226 -0.10213058 -0.95600003 0
3.3260934 -0.091542467 -0.91375738 0
3.2623599 -0.080506243 -0.88154632 0
3.3149724 -0.060713738 -0.88705033 0
3.309 -0.021675481 -0.85155386 0
3.221597 -0.0052797915 -0.87255853 0
3.2175062 0.042259227 -0.90785515 0
3.2337599 0.069524549 -0.84260994 0
3.2303438 0.022306859 -0.90988004 0
3.2431493 0.074062601 -0.88295358 0
3.2109001 0.013437026 -0.81699997 0
3.1956828 0.0096633919 -0.86719686 0
3.2642217 0.10882024 -0.88099647 0
3.1708343 0.016439367 -0.91526133 0
3.1515188 0.08553116 -0.89389896 0
3.151068 0.11549733 -0.8831805 0
3.1999857 0.089477971 -0.87453258 0
3.233288 0.1180575 -0.90842533 0
3.1893108 0.13093823 -0.81417924 0
3.1783674 0.075103097 -0.84116429 0
3.1811481 0.17879316 -0.92799997 0
3.1133809 0.0891435 -0.917144 0
3.1781414 0.1825937 -0.85803086 0
3.1987009 0.16676807 -0.82503748 0
3.2075717 0.16840065 -0.84367692 0
3.1556339 0.13163863 -0.9001525 0
3.1829858 0.13474299 -0.79700303 0.059999999
3.1758611 0.22106075 -0.88254881 0.14
3.1110442 0.18843545 -0.79000002 0.039999999
3.1684799 0.26008412 -0.88801521 0.079999998
3.1210339 0.1608462 -0.84145486 0.079999998
3.1735127 0.2630946 -0.8007434 0.079999998
3.113518 0.188843 -0.863841 0.079999998
3.1072748 0.26259217 -0.79760575 0.079999998
3.1173761 0.31519958 -0.81280255 0.15000001
3.1014082 0.21487385 -0.89707673 0.20999999
3.1419582 0.31668314 -0.80699009 0.039999999
3.0866666 0.25517619 -0.90799999 0.07
3.1232281 0.26612791 -0.81092614 0.15000001
3.0483832 0.27962795 -0.83533394 0.039999999
3.0937977 0.36547691 -0.80166811 0.07
3.0829408 0.25262821 -0.8554424 0.039999999
3.0994427 0.34032217 -0.86551052 0.07
3.11497 0.28663644 -0.80143285 0.039999999
3.071945 0.29775822 -0.88355327 0.07
3.079973 0.38886893 -0.84052789 0.039999999
3.1126068 0.36049613 -0.85001194 0
3.0975187 0.3440156 -0.83824003 0.12
3.0476222 0.39392379 -0.82171339 0.2
3.0646055 0.32417864 -0.83204538 0.16
3.1065395 0.4209235 -0.79651928 0.25999999
3.0071514 0.46528012 -0.85787344 0.38999999
3.0074213 0.35143608 -0.84603024 0.23
3.0314262 0.42238426 -0.81478935 0.25999999
3.1066465 0.38265169 -0.85148084 0.1
2.9696832 0.45172745 -0.76300001 0
2.9789894 0.43753725 -0.87786484 0
2.966686 0.46851486 -0.83330494 0
3.0600777 0.40670663 -0.78501505 0
3.0176966 0.5294205 -0.8429153 0
2.9905405 0.41375723 -0.85975146 0
3.011425 0.53854817 -0.79987884 0
3.027421 0.46771842 -0.84177196 0
2.9590273 0.43639281 -0.7784102 0
2.9586921 0.55448806 -0.86800003 0
3.0218546 0.51390773 -0.77657467 0
3.0113628 0.54023641 -0.81058735 0
2.9543579 0.52441192 -0.86131907 0
2.9393768 0.59367442 -0.7741186 0
2.8840158 0.55776989 -0.86500001 0
3.0006449 0.51489562 -0.77978456 0.059999999
2.9631631 0.5655877 -0.83030725 0.039999999
2.8977463 0.59570366 -0.78696001 0.07
2.9899023 0.60260284 -0.76947755 0.15000001
2.9044757 0.60088181 -0.74712229 0.16
2.8846326 0.53168768 -0.85130596 0.17
2.9139161 0.62129372 -0.82877433 0.18000001
2.903677 0.55263031 -0.82013935 0.090000004
2.9351928 0.61424649 -0.77178967 0.15000001
2.9466603 0.59783798 -0.78653508 0.050000001
2.8630159 0.67121398 -0.78368098 0.17
2.8642635 0.59537137 -0.82185519 0.11
2.8897369 0.69306469 -0.78575653 0.18000001
2.8750172 0.69029588 -0.81903994 0.11
2.8765309 0.72231662 -0.77261782 0.17
2.8756847 0.73410052 -0.81498253 0.12
2.8810585 0.69561362 -0.75333726 0.18000001
2.8446779 0.69598031 -0.73100001 0.12
2.8878534 0.69704294 -0.78259069 0.2
2.819608 0.63959426 -0.80652738 0.16
2.8952682 0.66182536 -0.80270207 0.25999999
2.8314762 0.75712985 -0.77250004 0.22
2.8627222 0.70819038 -0.78821045 0.17
2.834368 0.74877256 -0.82818919 0.28
2.7712586 0.79107136 -0.77004486 0.23
2.7990875 0.77922988 -0.81154251 0.16
2.7881145 0.7283203 -0.80859214 0.28999999
2.8421047 0.71579647 -0.82060134 0.25
2.8141127 0.80477422 -0.72503406 0.25
2.8208477 0.79773867 -0.78289801 0.25
2.8114004 0.79304469 -0.73973769 0.27000001
2.7597797 0.78853911 -0.72824681 0.27000001
2.8114681 0.74508065 -0.84100002 0.27000001
2.8246732 0.78966087 -0.76824361 0.27000001
2.7657921 0.87507981 -0.82065988 0.28
2.7905116 0.78341562 -0.748505 0.28
2.8445215 0.82171804 -0.75858915 0.28999999
2.7678075 0.77972108 -0.81232911 0.28
2.7436295 0.86372066 -0.77263129 0.28999999
2.7531776 0.89546734 -0.7536366 0.28
2.7327979 0.91625172 -0.7361303 0.28999999
2.8111188 0.85682029 -0.81342995 0.28999999
2.7741623 0.93966234 -0.75954372 0.28999999
2.7930357 0.88092262 -0.75796628 0.25999999
2.6871526 0.92564535 -0.71200001 0.28999999
2.7829313 0.9441275 -0.74858952 0.28999999
2.7448511 0.8800025 -0.79866683 0.28
2.7439144 0.93494642 -0.72693938 0.27000001
2.7588348 0.95973301 -0.77907944 0.25999999
2.722192 0.91547281 -0.82215005 0.25
2.716018 0.87576938 -0.74468613 0.28999999
2.7392449 0.93871731 -0.75882059 0.28999999
2.6646442 0.9612236 -0.82700002 0.28
2.6883759 0.90333015 -0.75270712 0.28
2.6498213 0.95849711 -0.76367956 0.27000001
2.6425817 0.96692538 -0.73339188 0.27000001
2.7541354 0.92099965 -0.72054845 0.27000001
2.7665408 1.0188371 -0.73826146 0.23999999
2.6759365 0.9984175 -0.82300001 0.17
2.6923211 1.0403016 -0.71355456 0.28999999
2.7206612 0.96163273 -0.82489091 0.25
2.7316611 0.99848568 -0.82499999 0.16
2.7415214 0.98634696 -0.79921234 0.28999999
2.6218762 1.0235463 -0.78355062 0.23
2.6938694 1.0783566 -0.82499999 0.18000001
2.6183751 1.0474766 -0.72608942 0.27000001
2.6884775 1.0985171 -0.77432972 0.22
2.5876076 1.1133807 -0.80223972 0.18000001
2.7091997 1.0809363 -0.73623121 0.25999999
2.7095549 1.0189984 -0.82192695 0.19
2.6500299 1.0604429 -0.76980186 0.25
2.6520734 1.1455553 -0.75292313 0.19
2.6398606 1.1437848 -0.76760536 0.12
2.6748977 1.1629263 -0.79013914 0.2
2.5705521 1.1743444 -0.75864559 0.11
2.5933676 1.1863881 -0.75904346 0.19
2.5864635 1.1158553 -0.824 0.11
2.6556373 1.1053952 -0.77222759 0.18000001
2.6748383 1.1943862 -0.71460617 0.11
2.5493548 1.1395965 -0.72776192 0.16
2.5680285 1.1633114 -0.78983384 0.050000001
2.6092713 1.2101706 -0.75401968 0.16
2.6103258 1.2329545 -0.82099998 0.18000001
2.5365283 1.212127 -0.82200003 0.18000001
2.5610886 1.1641996 -0.76469779 0.17
2.6374412 1.1348798 -0.81415302 0.17
2.5700338 1.1805669 -0.82137513 0.17
2.6281583 1.2471738 -0.79825234 0.16
2.5651424 1.2769477 -0.80547994 0.039999999
2.5924103 1.2424852 -0.71737403 0.07
2.5827315 1.2541475 -0.79646266 0.039999999
2.5762925 1.2278138 -0.77013487 0.07
2.6077468 1.2924578 -0.75230742 0.039999999
2.5825143 1.2004578 -0.72971594 0
2.573158 1.2183514 -0.75993919 0
2.5533776 1.3008542 -0.83100003 0
2.5149443 1.275133 -0.77625775 0
2.5378933 1.2701174 -0.74931389 0
2.5976675 1.3535287 -0.70499998 0
2.5573685 1.2994758 -0.78665847 0
2.5547612 1.3685952 -0.82599998 0
2.5276647 1.2939984 -0.75106382 0
2.5199344 1.2866147 -0.70499998 0
2.4786935 1.3858275 -0.76830953 0
2.5419254 1.3194208 -0.71771812 0
2.5470726 1.4208866 -0.77429342 0
2.5174251 1.3926203 -0.76758683 0
2.4768496 1.3899866 -0.74241525 0
2.5721891 1.3815631 -0.71499997 0
2.5428751 1.3872734 -0.74377578 0
2.5158834 1.3953568 -0.72790956 0
2.5170836 1.3503546 -0.72220737 0
2.571775 1.4322067 -0.76246864 0
2.5219491 1.4054936 -0.75657952 0
2.5536444 1.4713773 -0.71030933 0
2.5210402 1.4015737 -0.80852008 0
2.4532197 1.3482188 -0.77727294 0
2.3976445 1.4264071 -0.70026088 0
2.2978346 1.2829783 -0.72491157 0.02
2.2681165 1.4118918 -0.6757865 0.15000001
2.3080568 1.314575 -0.67536235 0.25
2.2476811 1.3404722 -0.71006358 0.33000001
2.3004532 1.3711175 -0.71478623 0
2.225033 1.3846161 -0.72552741 0
2.2898664 1.37957 -0.66630512 0
2.2228091 1.4242921 -0.76078719 0
2.2519057 1.3752581 -0.69443357 0
2.2827518 1.4069946 -0.653 0
2.3007197 1.4197849 -0.71986187 0
2.3338704 1.4355316 -0.76419401 0
2.2876532 1.5167155 -0.73770702 0
2.3401291 1.4969412 -0.72525328 0
2.3699234 1.5220826 -0.70186299 0
2.2970262 1.5388927 -0.76292133 0
2.3500438 1.5077987 -0.71778142 0
2.3080232 1.5311679 -0.7649101 0
2.3185251 1.4897068 -0.73885405 0
2.3957226 1.689834 -0.77918285 0
2.3393743 1.6260148 -0.7740429 0
2.3384411 1.6991316 -0.74937773 0
2.3648586 1.663269 -0.77989501 0
2.3797388 1.6640986 -0.82502019 0
2.3367915 1.7752484 -0.81490743 0
2.3322396 1.7907617 -0.82189536 0
2.3341112 1.7442168 -0.76541984 0
2.2931941 1.7670299 -0.79448295 0
2.3128858 1.7232487 -0.76717585 0
2.2858593 1.7532799 -0.83899999 0
2.2633283 1.7859199 -0.74503809 0
2.2723155 1.8085225 -0.72997355 0
2.2606225 1.7302618 -0.73474717 0.20999999
2.343004 1.8010246 -0.75706273 0.20999999
2.2747498 1.794546 -0.77629972 0.23
2.2687478 1.7732221 -0.73343599 0.28
2.2477782 1.7481685 -0.76371557 0.2
2.2893484 1.8538417 -0.83499998 0.050000001
2.334326 1.8099943 -0.84399998 0
2.2924528 1.877879 -0.7467376 0
2.208138 1.7996019 -0.74916762 0.059999999
2.2427378 1.8274063 -0.74149519 0.039999999
2.2233601 1.8776238 -0.74865794 0.07
2.1997411 1.8161005 -0.75400841 0.039999999
2.247807 1.8343614 -0.71799999 0
2.2135255 1.8246527 -0.84029692 0
2.2477942 1.8414978 -0.78147036 0
2.2258086 1.8627402 -0.79328942 0
2.2556703 1.8719164 -0.77978611 0
2.1639585 1.8823838 -0.82211846 0
2.2226102 1.8659986 -0.76111543 0
2.2407703 1.9599484 -0.77344936 0
2.2322123 1.9286177 -0.7680167 0
2.1943264 1.9028428 -0.80123609 0
2.2509036 2.0022974 -0.75573391 0
2.1962345 1.9208657 -0.82083249 0
2.1319249 1.9035666 -0.84899998 0
2.2008684 1.9806446 -0.7992965 0
2.1267052 1.9676794 -0.82009524 0
2.1890926 1.9825954 -0.81067443 0
2.2041526 1.9417444 -0.73400003 0
2.2240129 2.0048852 -0.80461711 0
2.1462452 2.0100763 -0.85699999 0
2.1752033 1.9606981 -0.85281384 0
2.1053674 2.0945902 -0.81637132 0
2.1395397 2.0279284 -0.80394429 0
2.0979729 2.0057917 -0.80398452 0
2.2068179 2.0790875 -0.73900002 0
2.1859365 2.0792823 -0.8422218 0
2.1045084 2.0261769 -0.79443908 0
2.1456215 2.0356638 -0.81631035 0
2.1710711 2.1168637 -0.84155786 0
2.0755692 2.0551836 -0.84187484 0
2.1428249 2.1329684 -0.81269211 0
2.1725397 2.1896987 -0.755 0
2.1588168 2.1248274 -0.87403494 0
2.123867 2.1182582 -0.88 0
2.154382 2.1035416 -0.82349235 0
2.1551452 2.1483898 -0.81424779 0
2.0627835 2.2285883 -0.85264862 0
2.1206009 2.1635027 -0.80560809 0
2.0651183 2.2089067 -0.86763501 0
2.123064 2.239454 -0.77396482 0
2.1520383 2.2139666 -0.83058006 0
2.0935066 2.2642698 -0.80878955 0
2.0494874 2.2507255 -0.79713899 0
2.1329272 2.2751153 -0.86014289 0
2.0848494 2.2323098 -0.86913615 0
2.1126268 2.265784 -0.7837407 0
2.05934 2.220624 -0.83626199 0
2.0730793 2.2845247 -0.88677311 0
2.0882661 2.3114474 -0.83861709 0
3.466634 -0.21248809 -1.004468 0
3.4652896 -0.17165147 -0.95148003 0
3.4751294 -0.16054715 -1.041 0.029999999
3.4148574 -0.17191538 -1.0106428 0.07
3.4034109 -0.10460239 -0.93008351 0.039999999
3.4300907 -0.15011963 -0.91441882 0.16
3.3185396 -0.056288369 -0.95626581 0.19
3.3069935 -0.089246944 -0.99227631 0.1
3.4138262 -0.054783624 -0.89300001 0.18000001
3.3057318 -0.08770448 -0.92820495 0.14
3.3191574 -0.065172143 -0.88700002 0.16
3.2958722 -0.10918941 -0.99693882 0.18000001
3.3317461 -0.021105573 -0.91876292 0.22
3.3230586 -0.041401003 -0.99599999 0.19
3.3520253 -0.012567542 -0.99800003 0.23
3.3090639 -0.0045599849 -0.92643285 0.22
3.2919397 -0.047162663 -0.98028862 0.20999999
3.2357891 -0.004444513 -0.99000001 0.25
3.2038441 -0.020562282 -0.8867479 0.23999999
3.2442174 0.05170022 -0.90645498 0.25999999
3.2511342 0.0067656669 -0.96267366 0.25999999
3.2668855 0.041019797 -0.91985053 0.28
3.1731439 0.014608902 -0.93560851 0.28
3.1856172 0.016235987 -0.85892588 0.27000001
3.2581909 0.044579156 -0.92891711 0.27000001
3.2301509 0.018605052 -0.90069437 0.28
3.2384911 0.043132301 -0.9351033 0.30000001
3.2480087 0.15246405 -0.94190592 0.28
3.1929519 0.12005588 -0.86182004 0.28999999
3.1969538 0.16722348 -0.90940338 0.27000001
3.1777117 0.15413335 -0.94491845 0.25
3.2049353 0.067029938 -0.83899999 0.25
3.1293819 0.10460276 -0.9096002 0.28
3.1923027 0.20596913 -0.86756867 0.31999999
3.1777108 0.19963391 -0.84883934 0.28
3.1689339 0.17073821 -0.9437809 0.34999999
3.1413119 0.14704525 -0.86110198 0.30000001
3.0899143 0.19248727 -0.87306559 0.37
3.1386776 0.12932214 -0.88926047 0.31
3.0655706 0.22005729 -0.86153322 0.34
3.1836934 0.17394271 -0.86760855 0.31
3.1586556 0.27725887 -0.92113733 0.20999999
3.0804772 0.20868297 -0.89420986 0.51999998
3.0942624 0.17366308 -0.89553124 0.23999999
3.0823088 0.22599195 -0.86051756 0.34
3.132417 0.31192821 -0.87130684 0.41
3.0968559 0.31970546 -0.91069025 0.40000001
3.0911086 0.27080342 -0.88474834 0.38999999
3.0895243 0.30956972 -0.81199998 0.38999999
3.1005614 0.27068725 -0.8546505 0.31999999
3.0302982 0.29340807 -0.84317106 0.40000001
3.0929978 0.2895622 -0.91393191 0.36000001
3.0661592 0.37277079 -0.85275829 0.40000001
3.0561528 0.26155791 -0.89088619 0.38
3.0455997 0.36118984 -0.8944419 0.38
3.0525849 0.35658088 -0.90816915 0.38
2.9899828 0.39343545 -0.81486082 0.34
2.9895072 0.3667891 -0.921 0.36000001
3.0212951 0.37407649 -0.83401293 0.37
3.096823 0.37151 -0.80127859 0.34999999
3.033643 0.34720054 -0.82891339 0.36000001
3.0130677 0.35614941 -0.79500002 0.34999999
3.0898261 0.412532 -0.917 0.36000001
3.0211427 0.46105364 -0.81189752 0.33000001
2.9789131 0.36464232 -0.80241978 0.33000001
2.9661064 0.4572199 -0.91000003 0.34
3.0243566 0.47904727 -0.84982973 0.38
3.0136371 0.48428991 -0.88200587 0.31999999
2.9809625 0.45266336 -0.79000002 0.31999999
2.9780889 0.45759153 -0.787 0.33000001
3.0006897 0.44225872 -0.86400199 0.34
2.984014 0.50579691 -0.84506172 0.34
2.9494066 0.45304635 -0.82117712 0.31999999
2.9556184 0.47389108 -0.88327515 0.34999999
2.987463 0.49324641 -0.78299999 0.33000001
2.9508164 0.45105615 -0.86152309 0.34
2.9090216 0.46047288 -0.82833928 0.34
2.9648068 0.45867053 -0.87325644 0.36000001
2.8748381 0.46535599 -0.82584035 0.33000001
2.8849905 0.55613875 -0.89050996 0.37
2.9499543 0.54301035 -0.87172884 0.36000001
2.9235072 0.51119113 -0.82438493 0.36000001
2.9054713 0.61993647 -0.821329 0.36000001
2.9698124 0.54079986 -0.82787013 0.33000001
2.9825938 0.5827809 -0.77426922 0.34999999
2.9012337 0.52274364 -0.87672985 0.34999999
2.8538678 0.58993065 -0.78467035 0.34
2.9169898 0.64725 -0.84723508 0.37
2.9025075 0.6217981 -0.88599998 0.36000001
2.9068251 0.67419535 -0.84276175 0.36000001
2.9332423 0.58249944 -0.76800001 0.34999999
2.9197934 0.62152845 -0.884 0.31999999
2.8741381 0.68151838 -0.85600311 0.37
2.8850603 0.64875335 -0.81502348 0.34
2.8493452 0.68277562 -0.8375361 0.34
2.8123381 0.67521977 -0.86314946 0.31999999
2.8149486 0.66758531 -0.77448153 0.28999999
2.8443739 0.61800951 -0.81776047 0.31999999
2.8891082 0.70327443 -0.76646656 0.33000001
2.7910388 0.63127595 -0.85100752 0.33000001
2.8239839 0.71934438 -0.84910297 0.34
2.8519645 0.72006702 -0.75800002 0.38
2.786175 0.68001062 -0.81940514 0.41
2.8685308 0.76009595 -0.82199824 0.28999999
2.8079705 0.71466005 -0.75599998 0.49000001
2.8562043 0.78569996 -0.83452463 0.31
2.838243 0.73751324 -0.78469121 0.46000001
2.8084202 0.71516424 -0.85255396 0.34999999
2.8257291 0.76760757 -0.81430465 0.47999999
2.8080451 0.76302189 -0.83943284 0.36000001
2.8484025 0.82926887 -0.76299363 0.51999998
2.8368213 0.84921628 -0.84161931 0.40000001
2.8040478 0.75258523 -0.87 0.51999998
2.8082554 0.83938879 -0.81703275 0.38999999
2.867183 0.81487989 -0.81970793 0.43000001
2.7338252 0.77594352 -0.79007304 0.41999999
2.7616749 0.82371473 -0.80690247 0.44
2.7722921 0.78090221 -0.82649207 0.44
2.7157581 0.85860658 -0.82062602 0.46000001
2.7227376 0.80047369 -0.82904333 0.49000001
2.7252698 0.8790462 -0.78879577 0.46000001
2.7304411 0.88861084 -0.81862456 0.47
2.7703049 0.93233937 -0.83880138 0.51999998
2.7813666 0.867603 -0.81636506 0.5
2.7720513 0.89651346 -0.79914582 0.52999997
2.7864671 0.90524197 -0.76683694 0.73000002
2.7402532 0.90583062 -0.84620142 0.23
2.757647 0.88863653 -0.81425154 0.54000002
2.7658308 0.90683842 -0.84412003 0.56999999
2.7542822 0.88873756 -0.77505475 0.57999998
2.7873385 0.91179937 -0.86199999 0.56999999
2.7351713 0.91492873 -0.76667058 0.56999999
2.7922721 0.91316551 -0.77520329 0.56999999
2.7467058 1.0142543 -0.81504714 0.58999997
2.6727428 0.99986047 -0.81352419 0.60000002
2.6739788 1.0104289 -0.81783116 0.58999997
2.648315 0.99194497 -0.82579339 0.58999997
2.7428424 0.9363718 -0.83057851 0.62
2.6637719 1.0473651 -0.80151474 0.62
2.7322602 1.0094765 -0.78531462 0.60000002
2.7270997 1.0241412 -0.82129151 0.62
2.6839674 0.97524786 -0.79412788 0.62
2.6188056 0.98080719 -0.75762087 0.58999997
2.655472 1.0251334 -0.78249574 0.61000001
2.665561 1.0264502 -0.82083625 0.61000001
2.6789336 1.0227885 -0.73699999 0.61000001
2.6730261 1.1071694 -0.78615874 0.61000001
2.7263341 1.056 -0.77689016 0.62
2.6870961 1.034604 -0.76781964 0.58999997
2.6644218 1.0802863 -0.84146398 0.61000001
2.5963657 1.1107913 -0.73699999 0.62
2.61411 1.0316406 -0.76317149 0.58999997
2.6187782 1.1366405 -0.8012287 0.58999997
2.5984395 1.0803937 -0.78765142 0.60000002
2.631671 1.1099423 -0.76786244 0.60000002
2.6119881 1.1302992 -0.78011721 0.56999999
2.688381 1.1108634 -0.82875586 0.61000001
2.6109822 1.1446939 -0.79912001 0.56999999
2.6649415 1.0833511 -0.84203017 0.56999999
2.6780429 1.1983386 -0.73400003 0.56999999
2.5565627 1.1748922 -0.77784914 0.56999999
2.5991549 1.1815481 -0.73199999 0.52999997
2.6538086 1.1925128 -0.81808037 0.54000002
2.6040149 1.1779838 -0.85000002 0.5
2.6275401 1.1636748 -0.76904744 0.51999998
2.6212444 1.2350465 -0.78294277 0.51999998
2.5334711 1.1625143 -0.82120728 0.47999999
2.6016154 1.263754 -0.80464697 0.46000001
2.6189992 1.2122315 -0.78934681 0.46000001
2.5134487 1.2322627 -0.74539506 0.47
2.5344853 1.2619236 -0.76992863 0.44
2.5840292 1.2053105 -0.74824584 0.44999999
2.5751066 1.2596658 -0.75880533 0.44999999
2.4949775 1.2179433 -0.85000002 0.41999999
2.5609396 1.2141382 -0.81852692 0.41
2.5770829 1.2257605 -0.83001935 0.41
2.5438614 1.2543691 -0.76894182 0.47999999
2.5672843 1.2175341 -0.76438272 0.38
2.5357523 1.2973228 -0.78601539 0.47999999
2.5055351 1.3430313 -0.82399994 0.34999999
2.5070686 1.2851495 -0.84799999 0.46000001
2.5053253 1.3315855 -0.72500002 0.41
2.5219147 1.2970339 -0.79989511 0.43000001
2.4551616 1.2670834 -0.83929104 0.41
2.5327148 1.3842285 -0.76444072 0.47999999
2.5156519 1.3286628 -0.74644989 0.36000001
2.5063243 1.4025625 -0.77715397 0.38999999
2.514581 1.3273797 -0.83909297 0.44
2.4484327 1.355647 -0.72600001 0.34999999
2.4415479 1.395383 -0.81480306 0.44
2.4136543 1.3280269 -0.80256325 0.40000001
2.4677749 1.3515556 -0.8178519 0.33000001
2.4947681 1.4157443 -0.74938816 0.54000002
2.6703684 1.4760565 -0.79299998 0
2.4897168 1.3775508 -0.81551623 0
2.3238468 1.3921143 -0.6919359 0.090000004
2.3225226 1.3834964 -0.70248759 0.23
2.2971013 1.3143498 -0.76676691 0.25999999
2.3467877 1.2752551 -0.71299523 0.28999999
2.2755396 1.2811985 -0.71728349 0.30000001
2.2975385 1.3734227 -0.76842213 0.28999999
2.2906749 1.3626837 -0.78395545 0.30000001
2.3323543 1.3827996 -0.67146361 0.28999999
2.3201058 1.3579266 -0.70922935 0.27000001
2.2370644 1.4088725 -0.69031072 0.2
2.2900674 1.4082907 -0.76660609 0.25
2.262358 1.4321581 -0.78472972 0.20999999
2.2597375 1.4106205 -0.7317242 0.11
2.2937086 1.4395199 -0.73932499 0.19
2.2321835 1.4865273 -0.76014757 0.19
2.3447363 1.4117455 -0.74791551 0.18000001
2.3419919 1.4531211 -0.75278097 0.039999999
2.2810917 1.434858 -0.78459173 0
2.2256737 1.520226 -0.68900001 0
2.2337129 1.4351315 -0.80325073 0
2.3657074 1.5366622 -0.81999999 0
2.3567536 1.4962325 -0.75901741 0
2.3372445 1.5386261 -0.79663521 0
2.4131122 1.5315602 -0.76363194 0
2.35337 1.6596875 -0.74718249 0.02
2.3962023 1.6495239 -0.80536407 0.16
2.3226769 1.6674402 -0.79253852 0.27000001
2.3157132 1.7237753 -0.73500001 0.22
2.3814695 1.7297232 -0.78291619 0.25999999
2.3877411 1.7156764 -0.76297605 0.22
2.2913177 1.7165399 -0.77636737 0.050000001
2.3314445 1.6393511 -0.79718167 0.07
2.2831445 1.6607597 -0.83914423 0.16
2.3658116 1.7142966 -0.73900002 0.17
2.2713351 1.6786548 -0.82576758 0.19
2.2742918 1.7688791 -0.8339321 0.23999999
2.2524171 1.7860495 -0.76237851 0.20999999
2.311887 1.7059593 -0.73299998 0.18000001
2.29879 1.7871418 -0.81275707 0.2
2.2504158 1.7256163 -0.82996637 0.40000001
2.3329649 1.7318246 -0.77522165 0.38999999
2.2963223 1.7671081 -0.86699998 0.44999999
2.3309734 1.8257035 -0.80510616 0.46000001
2.2724771 1.8135129 -0.866 0.44
2.2743077 1.8572481 -0.77693999 0.43000001
2.3246038 1.7479124 -0.7789042 0.43000001
2.2661083 1.8752208 -0.76505643 0.41
2.2449429 1.7638192 -0.81636941 0.52999997
2.2369826 1.8396367 -0.79140317 0.37
2.1867223 1.8531057 -0.7917518 0.58999997
2.2357843 1.8046905 -0.80045974 0.34
2.2829299 1.85025 -0.81016618 0.44999999
2.2342205 1.8183722 -0.82423806 0.41
2.2225664 1.861129 -0.82154059 0.41
2.2545061 1.9027748 -0.78941548 0.44999999
2.2418888 1.9340974 -0.80272293 0.34999999
2.1697681 1.9217185 -0.84948671 0.43000001
2.1781161 1.8778298 -0.76078999 0.41
2.2503009 1.955116 -0.81177813 0.38
2.1744738 1.8971583 -0.80073619 0.41
2.1506379 1.9337023 -0.84270674 0.40000001
2.1366677 1.8893558 -0.82096171 0.38999999
2.1269915 1.932036 -0.80532616 0.40000001
2.1909485 1.9541947 -0.77549571 0.36000001
2.1858227 1.9833485 -0.75099999 0.36000001
2.1130559 1.9900542 -0.79488361 0.38
2.1463997 1.9458961 -0.75850952 0.34999999
2.2185237 1.9622838 -0.80959493 0.34
2.2095785 1.9909844 -0.84722525 0.37
2.179976 2.0304115 -0.85295367 0.31999999
2.1278248 1.9363834 -0.80835503 0.36000001
2.1825879 1.9841357 -0.87389565 0.33000001
2.1322629 2.0723653 -0.83071554 0.31
2.2053635 1.9938505 -0.88700002 0.34
2.173768 2.0413506 -0.83319819 0.31999999
2.1349366 2.1018696 -0.79606259 0.31999999
2.162957 2.1053612 -0.8067379 0.31999999
2.0761538 2.0816789 -0.83422136 0.31
2.1659391 2.0426843 -0.83588761 0.31
2.1167722 2.1394668 -0.79881501 0.28999999
2.1551316 2.0301006 -0.79061782 0.28999999
2.1677158 2.1597695 -0.87539262 0.27000001
2.1263552 2.0736816 -0.83936471 0.30000001
2.0975931 2.0595992 -0.82591087 0.30000001
2.1232955 2.1531899 -0.82915515 0.34999999
2.1002035 2.1429431 -0.90100002 0.31999999
2.1314318 2.1126006 -0.89535433 0.34
2.1035182 2.0823832 -0.82321912 0.28
2.0833416 2.1430738 -0.84761685 0.2
2.1270707 2.1785662 -0.84133774 0.039999999
2.1724834 2.1328378 -0.81699789 0.029999999
2.1059797 2.2049468 -0.83571744 0.16
2.1496322 2.2578845 -0.88860548 0.23
2.0888164 2.1895003 -0.83497202 0.28
2.0521309 2.2953238 -0.90551025 0.30000001
2.0791278 2.2649839 -0.79900002 0.31999999
2.0380418 2.2721426 -0.91283631 0.36000001
2.124109 2.2771106 -0.82110113 0.36000001
2.1373847 2.3162179 -0.87619746 0.38999999
2.1278322 2.2304752 -0.89226854 0.36000001
2.1024413 2.3204799 -0.85995275 0.36000001
2.0855248 2.2561445 -0.93573457 0.34999999
2.0832973 2.2998674 -0.91555357 0.34999999
2.1225643 2.403966 -0.90003169 0.38
2.0760219 2.3391585 -0.83099997 0.34
2.1591678 2.4152083 -0.84603882 0.13
2.1323369 2.3569212 -0.87416476 0
2.1159425 2.417628 -0.8926273 0
2.1245856 2.4558437 -0.91361296 0
2.0819376 2.4337196 -0.93578154 0
2.0589931 2.4840119 -0.96535671 0
2.0667207 2.4855249 -0.98062336 0
2.1536074 2.538569 -0.94369614 0
2.1636178 2.5316594 -1.005 0
2.1654251 2.5578516 -0.94440597 0
2.1407418 2.5419991 -0.95336443 0
2.1660705 2.554796 -0.93044102 0
2.1329186 2.5885167 -0.96073627 0
2.0968912 2.6773391 -0.94973487 0
2.1511157 2.6206117 -0.97979724 0
2.1586995 2.6297655 -1.046 0
2.2580688 2.7690027 -0.9686752 0
2.1899226 2.796078 -1.0642496 0
3.432574 -0.21736471 -1.0330863 0
3.4287663 -0.21090388 -1.0460193 0
3.373595 -0.16452929 -0.97436041 0
3.3861685 -0.15034564 -1.021824 0.029999999
3.407948 -0.17756712 -1.0639999 0.029999999
3.4414842 -0.12038366 -0.97342771 0.07
3.3671083 -0.17786995 -0.97752321 0.15000001
3.416003 -0.10348558 -0.94290864 0.16
3.386677 -0.1052324 -0.96910053 0.16
3.3341432 -0.14064108 -1.0108529 0.17
3.3348606 -0.12405618 -0.93280327 0.18000001
3.3736284 -0.075703979 -0.91799998 0.18000001
3.2700391 -0.053503342 -0.95913815 0.12
3.3360732 -0.13319971 -0.99197984 0.059999999
3.2621946 -0.041821532 -0.9834823 0.16
3.2535419 -0.039734278 -1.0090799 0.039999999
3.2357383 -0.049388405 -0.92951369 0.16
3.2481227 -0.030398216 -0.96765631 0.2
3.2410593 -0.018874621 -0.90200001 0.1
3.1931815 -0.016316524 -0.96429318 0.16
3.2010314 0.039372787 -0.93410391 0.20999999
3.2114224 0.0086243944 -0.95962572 0.16
3.2527764 -0.016872641 -0.94698322 0.23999999
3.1883318 0.05772166 -0.95141721 0.18000001
3.2565744 0.056374792 -0.98781842 0.23999999
3.2409177 0.10410509 -0.90021724 0.19
3.2309167 0.054878816 -0.88199997 0.12
3.1589463 0.014718096 -0.88660187 0.20999999
3.1395388 0.10105276 -0.91132265 0.2
3.154057 0.11044299 -0.9557665 0.13
3.1437082 0.035755634 -0.91987258 0.20999999
3.2039881 0.13160551 -0.95886779 0.16
3.1515653 0.14364977 -0.87400001 0.28999999
3.1473861 0.060230542 -0.92389423 0.25
3.0888164 0.076018199 -0.90700036 0.25
3.0946102 0.10795739 -0.9727211 0.25999999
3.0916185 0.20083512 -0.8906256 0.28999999
3.1000853 0.12443391 -0.86783701 0.28
3.1655705 0.16285887 -0.95688111 0.27000001
3.0739956 0.15963604 -0.96017784 0.28999999
3.1440566 0.16506281 -0.94119078 0.28999999
3.1669102 0.2442171 -0.95864451 0.27000001
3.1404948 0.25337371 -0.87462026 0.2
3.100518 0.19711562 -0.89565337 0.44999999
3.0365715 0.22925025 -0.89671075 0.28
3.1004272 0.22556524 -0.96700001 0.30000001
3.0563033 0.21504225 -0.97000003 0.34
3.1115112 0.28258085 -0.88346672 0.33000001
3.0391524 0.20797516 -0.9233427 0.30000001
3.077296 0.27762675 -0.87392128 0.28
3.0892735 0.21139485 -0.95604473 0.30000001
3.0685244 0.25085676 -0.92755425 0.36000001
3.0948713 0.34248361 -0.95999998 0.38
3.0725603 0.2382092 -0.9398883 0.37
3.0681255 0.29806751 -0.95405 0.36000001
3.0725846 0.36477864 -0.95499998 0.37
2.9945323 0.27571511 -0.87311918 0.33000001
2.9862273 0.26349065 -0.88018864 0.38999999
3.0130925 0.34907284 -0.87683821 0.31
3.0865731 0.36793023 -0.92543769 0.34999999
3.0382991 0.32449862 -0.94787717 0.34
3.0211596 0.33432949 -0.89386243 0.34
3.0251772 0.36734182 -0.85408443 0.31999999
2.9681351 0.38066578 -0.87183774 0.31
3.0295851 0.38399619 -0.92647564 0.31999999
2.9883399 0.36338273 -0.94970137 0.30000001
3.0406051 0.38557008 -0.94599998 0.28
2.9530616 0.45658875 -0.82800001 0.31
3.0705731 0.42808679 -0.90580654 0.28999999
2.9885938 0.42515206 -0.92704451 0.30000001
3.0278993 0.48006985 -0.86408406 0.30000001
3.0351167 0.38626119 -0.88595325 0.30000001
2.9848237 0.44302061 -0.88576251 0.30000001
2.9736402 0.45517096 -0.85293764 0.28999999
3.0466049 0.48385939 -0.90060019 0.30000001
2.9300323 0.47717789 -0.85689646 0.28999999
2.9784768 0.42413634 -0.86449885 0.31
3.0090222 0.49914286 -0.84431154 0.28
2.986352 0.50213921 -0.92839187 0.28999999
2.9944468 0.46350542 -0.83707541 0.30000001
2.9635322 0.47109354 -0.92753732 0.31999999
2.9839888 0.52892357 -0.8244766 0.28
2.8916359 0.49657843 -0.81900918 0.28999999
2.9904089 0.48728615 -0.87279642 0.31
2.9144468 0.58098954 -0.90298522 0.30000001
2.9789116 0.49311119 -0.83095187 0.30000001
2.8822763 0.56594139 -0.84021574 0.31
2.9737923 0.5717814 -0.9208656 0.30000001
2.85588 0.56592977 -0.91799998 0.31999999
2.9690568 0.64435023 -0.89521283 0.31999999
2.8309543 0.53002316 -0.86370754 0.28999999
2.9282353 0.63082755 -0.91900003 0.33000001
2.8654857 0.55037069 -0.92000002 0.31999999
2.8008814 0.60482621 -0.81707454 0.30000001
2.8358202 0.63229191 -0.86294967 0.31
2.8041937 0.63632369 -0.84665835 0.31999999
2.8101373 0.62601393 -0.84255785 0.31999999
2.8336446 0.60472858 -0.78899997 0.28999999
2.87972 0.6814059 -0.79100001 0.34999999
2.8665535 0.71926856 -0.83365846 0.34
2.8908913 0.61567855 -0.80556959 0.28999999
2.8344781 0.72276789 -0.86273193 0.34999999
2.9035032 0.62854576 -0.90253484 0.30000001
2.7780375 0.68482602 -0.81255651 0.37
2.8965354 0.67272723 -0.84958172 0.30000001
2.845916 0.67173731 -0.81143039 0.31999999
2.8260427 0.66544199 -0.791565 0.31999999
2.7892263 0.72057736 -0.81564695 0.33000001
2.8345146 0.72993439 -0.84718269 0.34
2.8167446 0.7693823 -0.82875001 0.33000001
2.8311846 0.77304149 -0.88285804 0.31999999
2.7713809 0.74675274 -0.81791276 0.38
2.8351636 0.76214349 -0.89300001 0.28999999
2.7637303 0.72788507 -0.80889857 0.34999999
2.8061569 0.76014543 -0.84127992 0.34
2.7769647 0.81780207 -0.8416754 0.36000001
2.7108824 0.78637099 -0.84896731 0.31999999
2.7718153 0.73033732 -0.83398885 0.31999999
2.7483449 0.77220142 -0.81683546 0.31
2.7354126 0.87068504 -0.79668134 0.28999999
2.7508082 0.75974268 -0.79645729 0.27000001
2.7065527 0.88467622 -0.82855332 0.27000001
2.7567837 0.86367238 -0.8255313 0.23
2.8036225 0.88125741 -0.77099997 0.28999999
2.7560999 0.8251031 -0.81633615 0.30000001
2.7722886 0.88837695 -0.8403706 0.31
2.6770101 0.88622785 -0.77367699 0.43000001
2.722616 0.91653883 -0.84694403 0.34999999
2.6756504 0.91457629 -0.76800001 0.36000001
2.7742126 0.84449011 -0.79274154 0.34
2.7154012 0.92213953 -0.81630033 0.46000001
2.7100129 0.897313 -0.85353291 0.33000001
2.6578269 0.90216893 -0.78930539 0.61000001
2.7494252 0.88565612 -0.79301757 0.34
2.7551222 0.86820072 -0.84573001 0.27000001
2.7026067 0.98212671 -0.87964374 0.30000001
2.6695197 0.93652534 -0.78168684 0.28
2.6323092 0.90535724 -0.84037209 0.25999999
2.6397505 0.9239834 -0.77408677 0.28
2.7028074 0.96673352 -0.84625041 0.54000002
2.6800718 1.0235802 -0.76586956 0.25
2.7016563 0.93223494 -0.88300002 0.28999999
2.6581187 1.0269595 -0.78463227 0.31
2.7260804 1.0028845 -0.88300002 0.31
2.6415651 0.97996151 -0.76310843 0.31
2.6892896 1.0664934 -0.83930355 0.27000001
2.6256878 1.0186104 -0.76099998 0.20999999
2.6594298 1.0806127 -0.86029738 0.27000001
2.6225538 1.0084585 -0.80765355 0.22
2.6514542 1.0366383 -0.82351577 0.18000001
2.5850267 1.0597427 -0.75599998 0.19
2.6545565 1.0472076 -0.81995159 0.31
2.6212161 0.99610531 -0.81103134 0.41
2.5988944 1.0551107 -0.86930227 0.44999999
2.6096303 1.0877162 -0.76900917 0.47999999
2.6420367 1.0609975 -0.82006687 0.47999999
2.5720286 1.0914228 -0.7934795 0.44999999
2.5346117 1.1106172 -0.82966608 0.46000001
2.5677748 1.0932013 -0.80465662 0.46000001
2.6436875 1.1051919 -0.82534933 0.47
2.6107051 1.1368552 -0.7633273 0.47
2.5790176 1.1248879 -0.80765218 0.47999999
2.5373235 1.0963521 -0.76883155 0.47999999
2.5730569 1.1655275 -0.86356479 0.47999999
2.5414083 1.1445993 -0.86795431 0.47
2.5044653 1.1353106 -0.87099999 0.47999999
2.5187452 1.1837188 -0.85590583 0.49000001
2.5609586 1.1621748 -0.80825984 0.49000001
2.5315993 1.1690553 -0.80567241 0.49000001
2.5437996 1.1445088 -0.80511862 0.47999999
2.5243073 1.1733177 -0.83984894 0.47
2.5356648 1.2301161 -0.81576848 0.44999999
2.5526493 1.2209182 -0.75199997 0.44999999
2.4963861 1.2407206 -0.84429163 0.46000001
2.4925919 1.1928852 -0.80323571 0.46000001
2.5199981 1.1841546 -0.74898648 0.44
2.505738 1.2774657 -0.82972556 0.47
2.5735998 1.2437935 -0.786138 0.44999999
2.5154712 1.2182873 -0.80855274 0.44
2.484796 1.3090807 -0.79681873 0.43000001
2.5496736 1.2845184 -0.82028919 0.41999999
2.4802935 1.3233424 -0.85881448 0.43000001
2.5027909 1.3286399 -0.86900002 0.44999999
2.4879131 1.2944732 -0.84682542 0.56999999
2.5296171 1.2731885 -0.80813342 0.40000001
2.4518602 1.2634913 -0.82908487 0.41
2.4836714 1.2965715 -0.86653525 0.52999997
2.4632874 1.2788602 -0.78514409 0.37
2.4671714 1.3303471 -0.78085762 0.5
2.4170828 1.3810853 -0.77244794 0.38
2.5050287 1.3228056 -0.84614253 0.47999999
2.4538019 1.3801136 -0.81576687 0.36000001
2.5210428 1.3498132 -0.81320864 0.46000001
2.496731 1.3539735 -0.75155228 0.36000001
2.4548645 1.3521216 -0.83328372 0.64999998
2.6375878 1.4046879 -0.84722668 0
2.4667349 1.323895 -0.78089517 0
2.4196999 1.2994176 -0.763089 0
2.3770738 1.3266232 -0.78708351 0
2.3258371 1.3951983 -0.82514948 0
2.3353453 1.4060532 -0.85299999 0
2.3631182 1.4057257 -0.84535319 0
2.3638732 1.3528055 -0.84262526 0
2.4394302 1.3455298 -0.74000001 0
2.3484292 1.416594 -0.84462351 0
2.4094036 1.44253 -0.741 0
2.3490913 1.5234601 -0.81523186 0.0099999998
2.4273751 1.4984633 -0.75800002 0.11
2.3766208 1.4663687 -0.83985323 0.25
2.3123798 1.5445266 -0.76498812 0.38999999
2.4037428 1.4703802 -0.81399679 0.25
2.3385079 1.5267717 -0.77355397 0.14
2.3006804 1.5409586 -0.75 0.2
2.3080864 1.5549268 -0.78732997 0.19
2.3087492 1.5850633 -0.79102325 0.18000001
2.2897272 1.5212055 -0.7745266 0.16
2.3890429 1.5353537 -0.88200003 0.16
2.3603654 1.6517733 -0.87509912 0.16
2.3381987 1.5962442 -0.81215954 0.17
2.3574655 1.6154698 -0.85847372 0.17
2.3580935 1.5840013 -0.82291424 0.18000001
2.2618706 1.6020254 -0.81788445 0.090000004
2.2649515 1.6793522 -0.86419469 0.18000001
2.2775671 1.5739713 -0.82963455 0.2
2.2854214 1.6814132 -0.77325594 0.23
2.322336 1.6675732 -0.76575935 0.27000001
2.2776065 1.6433226 -0.82699686 0.43000001
2.3079944 1.7237173 -0.75999999 0.22
2.3056054 1.6332664 -0.83334875 0.55000001
2.3028069 1.7046294 -0.84428239 0.34
2.2322214 1.6601453 -0.764 0.46000001
2.3189132 1.6800152 -0.87622333 0.34999999
2.322772 1.6715795 -0.86616188 0.55000001
2.2206218 1.7070861 -0.83505446 0.31999999
2.3138812 1.6736318 -0.85103792 0.56999999
2.3284371 1.6955 -0.81671381 0.33000001
2.2917039 1.7173823 -0.82445091 0.51999998
2.2063262 1.7687459 -0.84029132 0.31999999
2.2638292 1.7670264 -0.7653777 0.51999998
2.2700374 1.7718079 -0.8439222 0.28999999
2.2595458 1.7415416 -0.81669188 0.47999999
2.2263169 1.7563598 -0.78746372 0.28999999
2.1982994 1.7882968 -0.81257641 0.49000001
2.2053037 1.824891 -0.83097798 0.37
2.1886315 1.7624342 -0.80246073 0.38
2.2216744 1.7649621 -0.8064118 0.44999999
2.2506657 1.7574196 -0.85804278 0.34999999
2.2146986 1.8792435 -0.82075632 0.44
2.206099 1.7957728 -0.84204644 0.40000001
2.1911685 1.837716 -0.830432 0.40000001
2.2439904 1.8494334 -0.84270287 0.38999999
2.2595778 1.8690909 -0.89499998 0.38
2.1701541 1.9011216 -0.86446935 0.37
2.1931903 1.8443714 -0.85106826 0.41
2.1944067 1.9205168 -0.89600003 0.38999999
2.2119131 1.8087302 -0.87331843 0.38
2.1606286 1.906322 -0.80523813 0.36000001
2.1267016 1.8938516 -0.85477966 0.38999999
2.1651862 1.87059 -0.84487849 0.37
2.1612682 1.9033074 -0.82243985 0.36000001
2.2143614 1.9107202 -0.86283153 0.37
2.1816344 1.9047759 -0.83049572 0.36000001
2.1303179 1.8962066 -0.78906512 0.34999999
2.1460698 1.9562584 -0.85643643 0.33000001
2.155246 1.9619954 -0.86794215 0.36000001
2.1406713 1.9176836 -0.87874401 0.34999999
2.1703312 1.9579873 -0.87785614 0.34
2.152292 1.9519969 -0.81739974 0.34999999
2.1701906 2.0127792 -0.8429175 0.31999999
2.1677792 1.959373 -0.85080338 0.31
2.0869908 1.978642 -0.84806317 0.31999999
2.0868697 2.0040581 -0.87171823 0.30000001
2.1230257 1.979352 -0.85784507 0.31
2.1397588 2.015079 -0.85795289 0.27000001
2.1658254 2.0486543 -0.89584094 0.20999999
2.0944719 2.0516114 -0.85866624 0.27000001
2.0807269 1.9735695 -0.86111265 0.25
2.0372221 2.0842891 -0.8415193 0.2
2.1756489 2.1375446 -0.89082521 0.25999999
2.1130993 2.0462492 -0.855591 0.23
2.1042392 2.1074555 -0.86005664 0.2
2.1364553 2.1240158 -0.82938498 0.25
2.0273485 2.0850036 -0.89706188 0.19
2.0594399 2.1414802 -0.88658965 0.23
2.1219406 2.0625186 -0.88040513 0.19
2.1229651 2.1685896 -0.8943128 0.12
2.1010091 2.2060797 -0.85289013 0
2.1299641 2.2422111 -0.92616576 0.059999999
