# .PCD v0.7 - Point Cloud Data file format
VERSION 0.7
FIELDS x y z intensity
SIZE 4 4 4 4
TYPE F F F F
COUNT 1 1 1 1
WIDTH 719
HEIGHT 1
VIEWPOINT 0 0 0 1 0 0 0
POINTS 719
DATA ascii
1.875 2.9400001 -0.551 0.19
1.893 2.9909999 -0.56099999 0.18000001
1.903 3.027 -0.56800002 0.31
1.909 3.0599999 -0.574 0.36000001
1.901 3.0680001 -0.574 0.31
1.88 3.0550001 -0.56999999 0.30000001
1.867 3.056 -0.56900001 0.28999999
1.872 3.0739999 -0.57200003 0.23999999
1.8609999 3.0780001 -0.57200003 0.20999999
2.1170001 2.7650001 -0.59100002 0.31
2.04 2.684 -0.56800002 0.38
2.0320001 2.6919999 -0.56800002 0.31999999
2.0150001 2.6849999 -0.565 0.49000001
2.0139999 2.7030001 -0.56800002 0.40000001
2.0009999 2.7030001 -0.56599998 0.41999999
1.988 2.7030001 -0.565 0.43000001
1.987 2.711 -0.56599998 0.43000001
1.967 2.701 -0.56199998 0.62
1.964 2.7149999 -0.56400001 0.41
1.977 2.75 -0.57099998 0.30000001
1.989 2.7850001 -0.57800001 0.44999999
1.973 2.7809999 -0.57599998 0.47
1.967 2.7909999 -0.57700002 0.46000001
1.9579999 2.7969999 -0.57700002 0.44
1.948 2.7920001 -0.57499999 0.55000001
1.943 2.8039999 -0.57599998 0.40000001
1.9349999 2.8099999 -0.57599998 0.5
1.9349999 2.829 -0.57999998 0.38
1.924 2.832 -0.579 0.47999999
1.9220001 2.8499999 -0.58200002 0.34999999
1.9069999 2.846 -0.579 0.54000002
1.923 2.8800001 -0.58700001 0.34
1.9069999 2.8740001 -0.58399999 0.47999999
1.91 2.898 -0.588 0.38
1.9069999 2.914 -0.59100002 0.47
1.906 2.9330001 -0.59399998 0.37
1.906 2.9519999 -0.597 0.38999999
1.895 2.9560001 -0.597 0.56
1.946 3.066 -0.62099999 0.33000001
1.931 3.0639999 -0.61900002 0.41
1.925 3.075 -0.62099999 0.40000001
1.915 3.0810001 -0.62099999 0.44
1.9069999 3.0880001 -0.62099999 0.44
1.896 3.0929999 -0.62099999 0.41999999
1.895 3.102 -0.62199998 0.41
1.869 3.082 -0.616 0.62
1.868 3.102 -0.61900002 0.31
2.0610001 2.733 -0.611 0.20999999
2.046 2.7309999 -0.60900003 0.31
2.039 2.73 -0.60799998 0.41
2.03 2.7360001 -0.60799998 0.43000001
2.016 2.7349999 -0.60600001 0.47
2.0079999 2.743 -0.60600001 0.47
2 2.7490001 -0.60600001 0.44999999
1.9910001 2.7550001 -0.60600001 0.44999999
1.984 2.763 -0.60699999 0.57999998
2.006 2.8039999 -0.61699998 0.33000001
2.0109999 2.8299999 -0.62199998 0.51999998
1.999 2.8310001 -0.62 0.50999999
1.987 2.835 -0.62 0.43000001
1.98 2.842 -0.62 0.41999999
1.969 2.845 -0.61900002 0.43000001
1.9680001 2.8640001 -0.62199998 0.46000001
1.959 2.8610001 -0.62099999 0.47
1.956 2.875 -0.62300003 0.41999999
1.947 2.881 -0.62300003 0.41
1.943 2.8959999 -0.625 0.51999998
1.942 2.9130001 -0.62800002 0.37
1.9349999 2.9230001 -0.62900001 0.47
1.932 2.9389999 -0.63099998 0.41
1.933 2.951 -0.634 0.46000001
1.9349999 2.974 -0.63800001 0.31
1.926 2.9820001 -0.63800001 0.5
1.927 3.0039999 -0.64300001 0.37
1.947 3.0569999 -0.65399998 0.55000001
1.947 3.0780001 -0.65799999 0.25999999
1.966 3.1530001 -0.67400002 0.50999999
1.942 3.125 -0.66600001 0.38
1.939 3.142 -0.66900003 0.5
1.9220001 3.1370001 -0.66600001 0.51999998
1.9069999 3.1340001 -0.66399997 0.51999998
1.899 3.142 -0.66399997 0.50999999
1.891 3.151 -0.66500002 0.47
1.8789999 3.154 -0.66399997 0.61000001
2.0469999 2.697 -0.63099998 0.31999999
2.0369999 2.701 -0.63099998 0.34
2.027 2.697 -0.62900001 0.37
2.0150001 2.6989999 -0.62699997 0.33000001
2.0050001 2.7030001 -0.62699997 0.37
2 2.714 -0.62800002 0.38999999
1.995 2.7249999 -0.62900001 0.28999999
2.0039999 2.7550001 -0.63599998 0.51999998
1.995 2.7609999 -0.63599998 0.18000001
2.0190001 2.802 -0.64600003 0.31999999
2.0150001 2.8150001 -0.648 0.34999999
2.013 2.8310001 -0.65100002 0.44999999
2 2.832 -0.64899999 0.33000001
1.99 2.8369999 -0.64899999 0.5
1.977 2.8369999 -0.64700001 0.31999999
1.969 2.845 -0.648 0.36000001
1.9680001 2.862 -0.65100002 0.43000001
1.959 2.859 -0.64899999 0.34999999
1.954 2.8710001 -0.65100002 0.36000001
1.956 2.8929999 -0.65499997 0.37
1.949 2.9030001 -0.65600002 0.36000001
1.947 2.9189999 -0.65899998 0.31999999
1.946 2.938 -0.662 0.46000001
1.949 2.9619999 -0.667 0.34999999
1.954 2.9790001 -0.671 0.31
1.952 2.997 -0.67400002 0.25
1.9579999 3.026 -0.68000001 0.5
1.989 3.1359999 -0.704 0.22
1.9680001 3.1259999 -0.69999999 0.40000001
1.955 3.1159999 -0.69599998 0.33000001
1.939 3.112 -0.69400001 0.38
1.932 3.1229999 -0.69499999 0.34999999
1.9119999 3.1129999 -0.69099998 0.43000001
1.905 3.1229999 -0.69199997 0.40000001
1.895 3.1289999 -0.69199997 0.37
1.893 3.1470001 -0.69499999 0.34
2.029 2.661 -0.65200001 0.25
2.0179999 2.6630001 -0.65100002 0.28999999
2.0009999 2.658 -0.648 0.47
1.993 2.664 -0.648 0.31
1.979 2.6630001 -0.64499998 0.51999998
1.978 2.6800001 -0.64899999 0.34
1.965 2.6800001 -0.64700001 0.55000001
1.967 2.691 -0.64899999 0.31999999
1.946 2.6800001 -0.64399999 0.51999998
1.995 2.767 -0.667 0.27000001
1.987 2.7750001 -0.66799998 0.47999999
1.982 2.786 -0.66900003 0.41999999
1.975 2.7950001 -0.67000002 0.34999999
1.965 2.8 -0.66900003 0.49000001
1.965 2.809 -0.671 0.34999999
1.946 2.799 -0.667 0.55000001
1.955 2.8329999 -0.67400002 0.31999999
1.933 2.8199999 -0.66900003 0.52999997
1.938 2.845 -0.67400002 0.31999999
1.916 2.832 -0.66900003 0.49000001
1.915 2.8510001 -0.67299998 0.37
1.911 2.8629999 -0.67400002 0.41999999
1.916 2.881 -0.67799997 0.41
1.914 2.898 -0.68199998 0.38999999
1.9069999 2.908 -0.68199998 0.37
1.906 2.927 -0.68599999 0.44999999
1.925 2.977 -0.69800001 0.33000001
1.9349999 3.013 -0.70599997 0.44999999
1.965 3.0810001 -0.72399998 0.20999999
1.978 3.1140001 -0.73199999 0.28
1.957 3.102 -0.727 0.5
1.943 3.0999999 -0.72399998 0.36000001
1.921 3.086 -0.71899998 0.44999999
1.915 3.099 -0.72100002 0.36000001
1.897 3.092 -0.71700001 0.44999999
1.892 3.1059999 -0.71899998 0.34999999
1.882 3.099 -0.71700001 0.54000002
1.883 3.1229999 -0.722 0.28999999
2.0739999 2.6989999 -0.69400001 0.22
2.0710001 2.7130001 -0.69599998 0.30000001
2.052 2.7060001 -0.69199997 0.31999999
2.0380001 2.7049999 -0.68900001 0.31999999
2.0280001 2.71 -0.68900001 0.38999999
2.0179999 2.714 -0.68800002 0.34999999
2.013 2.7249999 -0.69 0.36000001
2.003 2.73 -0.68900001 0.43000001
2.0050001 2.7409999 -0.69199997 0.34999999
2.027 2.79 -0.704 0.22
2.0439999 2.8299999 -0.71499997 0.38
2.043 2.848 -0.71799999 0.33000001
2.039 2.8610001 -0.72000003 0.44
2.0209999 2.8540001 -0.71600002 0.41
2.0150001 2.865 -0.71700001 0.41
2.0079999 2.865 -0.71600002 0.38
1.995 2.865 -0.71499997 0.44
1.995 2.8840001 -0.71799999 0.38999999
1.9809999 2.8840001 -0.71600002 0.38999999
1.984 2.908 -0.722 0.34
1.98 2.921 -0.72299999 0.36000001
1.978 2.938 -0.727 0.37
1.983 2.9560001 -0.73100001 0.31
1.979 2.97 -0.73299998 0.43000001
1.984 2.997 -0.73900002 0.31
1.975 3.003 -0.73900002 0.47999999
1.972 3.0190001 -0.74199998 0.40000001
1.974 3.043 -0.74699998 0.47999999
1.982 3.075 -0.755 0.22
2.02 3.145 -0.77399999 0.36000001
2.0109999 3.1530001 -0.77399999 0.34999999
1.999 3.1559999 -0.773 0.44999999
1.985 3.1559999 -0.77100003 0.36000001
1.9680001 3.151 -0.76800001 0.44
1.959 3.1589999 -0.76899999 0.28999999
1.9529999 3.171 -0.77100003 0.51999998
2.013 2.6229999 -0.70499998 0.02
2.017 2.645 -0.70999998 0.12
2.0109999 2.6459999 -0.70899999 0.18000001
1.994 2.6400001 -0.70599997 0.1
1.98 2.6389999 -0.70300001 0.16
1.9809999 2.6570001 -0.70700002 0.22
1.969 2.6589999 -0.70599997 0.16
1.957 2.6600001 -0.704 0.23
1.9630001 2.687 -0.70999998 0.1
1.9680001 2.7030001 -0.71399999 0.15000001
1.976 2.7320001 -0.722 0.23
1.993 2.7739999 -0.73199999 0.36000001
1.978 2.7720001 -0.73000002 0.34
1.966 2.773 -0.72799999 0.31999999
1.966 2.7920001 -0.73199999 0.34
1.949 2.786 -0.72799999 0.31
1.956 2.806 -0.73400003 0.31999999
1.9529999 2.8199999 -0.736 0.31
1.943 2.825 -0.736 0.30000001
1.937 2.836 -0.73699999 0.30000001
1.944 2.8640001 -0.74400002 0.30000001
1.931 2.8659999 -0.74199998 0.30000001
1.934 2.8900001 -0.74800003 0.30000001
1.9349999 2.901 -0.75 0.30000001
1.923 2.902 -0.74900001 0.28999999
1.929 2.9319999 -0.75599998 0.30000001
1.925 2.947 -0.75800002 0.30000001
1.913 2.948 -0.75700003 0.28999999
1.906 2.957 -0.75800002 0.19
1.898 2.9660001 -0.759 0.059999999
1.919 3.0090001 -0.77100003 0.16
1.952 3.0840001 -0.79100001 0.27000001
1.955 3.1099999 -0.79699999 0.25
1.931 3.0929999 -0.79000002 0.12
2.073 2.6860001 -0.76200002 0.27000001
2.059 2.684 -0.759 0.28999999
2.0369999 2.665 -0.75199997 0.46000001
2.0369999 2.6819999 -0.755 0.31999999
2.013 2.668 -0.74900001 0.43000001
2.0039999 2.6730001 -0.74800003 0.41
1.997 2.6819999 -0.74900001 0.47999999
2.0009999 2.704 -0.75400001 0.30000001
2.036 2.7690001 -0.773 0.33000001
2.033 2.7739999 -0.77399999 0.41
2.0239999 2.78 -0.77399999 0.41
2.0139999 2.7850001 -0.773 0.41
2.0039999 2.79 -0.773 0.55000001
1.999 2.8010001 -0.77399999 0.40000001
1.9809999 2.7950001 -0.76999998 0.50999999
1.979 2.8099999 -0.773 0.38
1.97 2.8069999 -0.77100003 0.47999999
1.97 2.826 -0.77499998 0.36000001
1.96 2.8310001 -0.77499998 0.47
1.96 2.849 -0.77899998 0.34999999
1.948 2.8510001 -0.77700001 0.44
1.941 2.8599999 -0.778 0.44
1.938 2.8740001 -0.78100002 0.43000001
1.936 2.891 -0.78399998 0.41
1.9349999 2.8989999 -0.78600001 0.41999999
1.925 2.904 -0.78500003 0.47999999
1.924 2.9230001 -0.78899997 0.34999999
1.923 2.9400001 -0.79299998 0.43000001
1.913 2.9460001 -0.79299998 0.41
1.915 2.9679999 -0.79799998 0.43000001
1.919 2.9949999 -0.80500001 0.43000001
1.961 3.0699999 -0.82700002 0.07
2.0940001 2.7119999 -0.80900002 0.25999999
2.0769999 2.707 -0.80500001 0.25
2.0769999 2.7249999 -0.80900002 0.25
2.0599999 2.72 -0.80500001 0.30000001
2.052 2.727 -0.80500001 0.25999999
2.0420001 2.7320001 -0.80400002 0.18000001
2.0539999 2.757 -0.81199998 0.30000001
2.0439999 2.7620001 -0.81099999 0.38
2.036 2.77 -0.81199998 0.38999999
2.0209999 2.766 -0.80900002 0.31
2.0190001 2.7820001 -0.81199998 0.36000001
2.0050001 2.7809999 -0.80900002 0.31
1.992 2.7820001 -0.80800003 0.31999999
1.99 2.789 -0.80900002 0.36000001
1.985 2.8 -0.81 0.31
1.978 2.809 -0.81099999 0.33000001
1.97 2.8169999 -0.81199998 0.31999999
1.966 2.829 -0.81400001 0.36000001
1.955 2.832 -0.81300002 0.34
1.951 2.846 -0.815 0.31999999
1.9529999 2.859 -0.81900001 0.34999999
1.947 2.868 -0.81999999 0.31999999
1.949 2.892 -0.82499999 0.31999999
1.944 2.905 -0.82700002 0.31
1.9450001 2.925 -0.83200002 0.30000001
1.933 2.928 -0.83099997 0.28
1.9349999 2.95 -0.83600003 0.31999999
1.936 2.9630001 -0.83899999 0.30000001
1.925 2.9660001 -0.838 0.30000001
1.927 2.99 -0.84399998 0.23
1.926 3.0090001 -0.84799999 0.13
1.9400001 3.053 -0.86000001 0.090000004
2.154 2.724 -0.852 0.11
2.135 2.717 -0.847 0.19
2.0969999 2.678 -0.83200002 0.28
2.079 2.6730001 -0.82800001 0.31999999
2.063 2.6700001 -0.824 0.30000001
2.0539999 2.675 -0.824 0.34999999
2.049 2.6860001 -0.82599998 0.23
2.0610001 2.72 -0.83499998 0.28
2.052 2.7249999 -0.83499998 0.40000001
2.052 2.734 -0.83700001 0.36000001
2.04 2.7360001 -0.83499998 0.38
2.0239999 2.733 -0.83200002 0.41999999
2.0039999 2.724 -0.82700002 0.38
1.994 2.727 -0.82599998 0.37
1.9859999 2.7349999 -0.82599998 0.38
1.975 2.7379999 -0.82499999 0.38
1.975 2.747 -0.82700002 0.38
1.967 2.7539999 -0.82700002 0.36000001
1.959 2.7609999 -0.82800001 0.38999999
1.948 2.7639999 -0.82700002 0.37
1.949 2.783 -0.83099997 0.34
1.938 2.786 -0.82999998 0.34999999
1.928 2.79 -0.829 0.46000001
1.927 2.7980001 -0.83099997 0.31999999
1.927 2.8169999 -0.83499998 0.34
1.9220001 2.829 -0.83700001 0.34
1.9170001 2.8399999 -0.83899999 0.33000001
1.914 2.8559999 -0.84200001 0.38999999
1.909 2.868 -0.84399998 0.34999999
1.905 2.8800001 -0.847 0.34999999
1.902 2.8959999 -0.85000002 0.38
1.903 2.9070001 -0.85299999 0.36000001
1.904 2.9289999 -0.85799998 0.38999999
1.903 2.9460001 -0.86199999 0.34999999
1.9069999 2.973 -0.86900002 0.28
2.1760001 2.717 -0.889 0.15000001
2.1559999 2.7090001 -0.88300002 0.33000001
2.1389999 2.7049999 -0.87900001 0.25999999
2.1170001 2.6930001 -0.87300003 0.25
2.105 2.6949999 -0.87099999 0.36000001
2.0880001 2.691 -0.86699998 0.36000001
2.0799999 2.698 -0.86699998 0.36000001
2.0780001 2.7130001 -0.87099999 0.36000001
2.0969999 2.747 -0.88200003 0.33000001
2.062 2.7190001 -0.86900002 0.56
2.066 2.7420001 -0.875 0.27000001
2.046 2.733 -0.86900002 0.44
2.03 2.73 -0.866 0.41
2.023 2.7379999 -0.86699998 0.41
2.0150001 2.7460001 -0.86699998 0.40000001
2.0090001 2.7460001 -0.866 0.41
1.992 2.7409999 -0.86199999 0.41
1.987 2.7520001 -0.86400002 0.41
1.973 2.7509999 -0.861 0.41999999
1.966 2.76 -0.86199999 0.41
1.961 2.7709999 -0.86400002 0.41
1.944 2.7639999 -0.85900003 0.46000001
1.946 2.777 -0.86299998 0.37
1.939 2.786 -0.86400002 0.38
1.933 2.796 -0.86500001 0.38999999
1.929 2.8099999 -0.86799997 0.41
1.92 2.816 -0.86799997 0.46000001
1.908 2.8169999 -0.866 0.41
1.904 2.829 -0.86799997 0.43000001
1.909 2.8469999 -0.87300003 0.40000001
1.9119999 2.872 -0.88 0.33000001
1.904 2.8789999 -0.88099998 0.37
1.895 2.885 -0.88099998 0.46000001
1.8940001 2.9030001 -0.884 0.33000001
1.893 2.9219999 -0.889 0.38999999
1.888 2.934 -0.89099997 0.36000001
1.89 2.9579999 -0.89700001 0.41
1.899 2.984 -0.90499997 0.23
2.1730001 2.724 -0.91500002 0.11
2.152 2.7160001 -0.90899998 0.28999999
2.1530001 2.7349999 -0.91399997 0.20999999
2.1470001 2.7449999 -0.91500002 0.20999999
2.141 2.7550001 -0.91600001 0.31
2.1289999 2.757 -0.91500002 0.27000001
2.1159999 2.75 -0.91100001 0.38
2.099 2.7460001 -0.90700001 0.34999999
2.085 2.7449999 -0.90399998 0.30000001
2.073 2.747 -0.90200001 0.36000001
2.05 2.7349999 -0.89499998 0.27000001
2.039 2.7379999 -0.89399999 0.36000001
2.027 2.74 -0.89200002 0.28999999
2.026 2.7479999 -0.89399999 0.37
2.0120001 2.7460001 -0.89099997 0.31
2.003 2.753 -0.89099997 0.33000001
1.994 2.7590001 -0.89099997 0.28999999
1.989 2.77 -0.89300001 0.40000001
1.978 2.773 -0.89200002 0.28999999
1.971 2.7809999 -0.89200002 0.38999999
1.96 2.7839999 -0.89099997 0.30000001
1.9630001 2.7980001 -0.89499998 0.36000001
1.955 2.8050001 -0.89600003 0.30000001
1.946 2.812 -0.89600003 0.33000001
1.942 2.8239999 -0.898 0.31999999
1.9400001 2.8399999 -0.90100002 0.28999999
1.934 2.8499999 -0.903 0.28999999
1.9349999 2.8710001 -0.90799999 0.33000001
1.9349999 2.8800001 -0.91100001 0.28999999
1.928 2.8889999 -0.912 0.31
1.925 2.905 -0.91500002 0.28
1.928 2.928 -0.921 0.25999999
1.929 2.95 -0.92699999 0.27000001
1.919 2.9549999 -0.92699999 0.30000001
1.92 2.977 -0.93199998 0.22
1.914 2.9779999 -0.93199998 0.14
2.1500001 2.7590001 -0.96100003 0.090000004
2.1389999 2.7620001 -0.95999998 0.19
2.109 2.7420001 -0.94999999 0.14
2.1070001 2.757 -0.95300001 0.30000001
2.099 2.7639999 -0.95300001 0.25
2.0829999 2.7520001 -0.94700003 0.27000001
2.0769999 2.7620001 -0.94800001 0.28999999
2.079 2.783 -0.954 0.27000001
2.0599999 2.776 -0.949 0.28999999
2.046 2.7750001 -0.94599998 0.28
2.0409999 2.786 -0.94800001 0.28
2.0220001 2.7780001 -0.94300002 0.28999999
2.0090001 2.7690001 -0.93800002 0.27000001
2.0120001 2.7920001 -0.94400001 0.28999999
1.995 2.786 -0.94 0.27000001
1.985 2.7909999 -0.93900001 0.28999999
1.982 2.8069999 -0.94300002 0.27000001
1.962 2.796 -0.93599999 0.28999999
1.956 2.806 -0.93800002 0.27000001
1.962 2.825 -0.94400001 0.2
1.949 2.825 -0.94099998 0.13
1.951 2.8469999 -0.94700003 0.18000001
1.9450001 2.858 -0.949 0.23
1.943 2.8740001 -0.95300001 0.1
1.938 2.8859999 -0.95499998 0.090000004
1.956 2.934 -0.97000003 0.13
1.954 2.9400001 -0.97100002 0.23999999
1.957 2.9649999 -0.97899997 0.16
1.9400001 2.96 -0.97399998 0.25
1.932 2.9679999 -0.97500002 0.14
1.932 2.9879999 -0.98000002 0.25999999
1.944 3.0280001 -0.99299997 0.14
1.943 3.049 -0.99800003 0.25999999
2.1789999 2.783 -1.01 0.34
2.165 2.7839999 -1.008 0.40000001
2.145 2.776 -1.002 0.31999999
2.128 2.7720001 -0.99699998 0.50999999
2.131 2.786 -1.002 0.31999999
2.108 2.773 -0.99400002 0.46000001
2.1010001 2.7820001 -0.995 0.38
2.0899999 2.786 -0.99400002 0.52999997
2.0769999 2.7869999 -0.991 0.40000001
2.0650001 2.7880001 -0.98900002 0.43000001
2.0550001 2.793 -0.98900002 0.54000002
2.05 2.7969999 -0.98900002 0.40000001
2.0350001 2.7939999 -0.98500001 0.52999997
2.0369999 2.816 -0.991 0.40000001
2.02 2.8110001 -0.98699999 0.52999997
2.0179999 2.8269999 -0.991 0.38999999
2.0050001 2.8269999 -0.98799998 0.5
1.997 2.835 -0.98900002 0.37
1.994 2.849 -0.99199998 0.44999999
1.989 2.852 -0.99199998 0.40000001
1.978 2.855 -0.991 0.5
1.979 2.875 -0.99599999 0.34999999
2.026 2.9630001 -1.028 0.25999999
2.0239999 2.9790001 -1.031 0.41
2.01 2.9790001 -1.029 0.51999998
2.013 3.0039999 -1.036 0.38999999
1.999 2.993 -1.031 0.5
1.998 3.0120001 -1.036 0.34999999
1.9859999 3.013 -1.034 0.47999999
1.984 3.0320001 -1.039 0.31999999
1.985 3.0539999 -1.045 0.38999999
2.007 3.108 -1.063 0.58999997
1.97 3.073 -1.0470001 0.25
2.181 2.78 -1.05 0.28
2.1489999 2.757 -1.038 0.37
2.141 2.7550001 -1.036 0.33000001
2.118 2.744 -1.028 0.43000001
2.109 2.7490001 -1.028 0.36000001
2.0940001 2.7479999 -1.025 0.38999999
2.0869999 2.756 -1.025 0.34
2.0680001 2.7490001 -1.02 0.44999999
2.066 2.7650001 -1.023 0.34999999
2.063 2.7690001 -1.024 0.38999999
2.056 2.779 -1.025 0.38999999
2.0339999 2.767 -1.018 0.46000001
2.0369999 2.789 -1.024 0.36000001
2.0250001 2.79 -1.022 0.44999999
2.0179999 2.8 -1.023 0.34999999
2.0079999 2.8050001 -1.023 0.41999999
2.0050001 2.809 -1.023 0.41
1.995 2.8139999 -1.023 0.41999999
1.9910001 2.8280001 -1.026 0.36000001
2.02 2.8889999 -1.048 0.28999999
2.036 2.9319999 -1.062 0.38
2.023 2.9330001 -1.0599999 0.47
2.0239999 2.954 -1.066 0.34999999
2.007 2.9400001 -1.059 0.47
2.0090001 2.9619999 -1.0650001 0.28999999
1.993 2.9579999 -1.062 0.49000001
1.985 2.9660001 -1.062 0.36000001
1.978 2.9760001 -1.064 0.44
1.97 2.9849999 -1.0650001 0.36000001
1.9579999 2.9860001 -1.063 0.54000002
1.961 3.0020001 -1.068 0.36000001
1.978 3.05 -1.084 0.40000001
2.201 2.777 -1.087 0.23
2.1889999 2.779 -1.085 0.23
2.1670001 2.76 -1.075 0.31
2.155 2.763 -1.073 0.28999999
2.142 2.763 -1.071 0.30000001
2.125 2.76 -1.066 0.28
2.1129999 2.7620001 -1.064 0.31999999
2.1029999 2.767 -1.064 0.34
2.0929999 2.7720001 -1.063 0.34
2.0899999 2.777 -1.064 0.34999999
2.0739999 2.7739999 -1.0599999 0.34
2.076 2.7950001 -1.0650001 0.31999999
2.063 2.796 -1.064 0.30000001
2.0599999 2.8110001 -1.067 0.31
2.049 2.8139999 -1.0650001 0.31999999
2.053 2.8369999 -1.073 0.37
2.0569999 2.8529999 -1.0779999 0.19
2.0569999 2.8710001 -1.0829999 0.28999999
2.0669999 2.904 -1.094 0.2
2.0699999 2.927 -1.101 0.25
2.0639999 2.938 -1.103 0.27000001
2.0539999 2.9430001 -1.102 0.34999999
2.052 2.961 -1.107 0.38
2.03 2.948 -1.099 0.23
2.03 2.9590001 -1.102 0.25999999
2.027 2.973 -1.105 0
1.999 2.9530001 -1.094 0
1.994 2.9660001 -1.097 0
1.9859999 2.974 -1.098 0
2.1900001 2.7609999 -1.1160001 0.31
2.1700001 2.753 -1.11 0.38
2.155 2.7520001 -1.1059999 0.30000001
2.1359999 2.7449999 -1.101 0.47999999
2.1289999 2.7539999 -1.101 0.36000001
2.1159999 2.7539999 -1.099 0.43000001
2.112 2.7590001 -1.099 0.34999999
2.092 2.7509999 -1.0930001 0.44999999
2.0840001 2.757 -1.0930001 0.34
2.075 2.7639999 -1.0930001 0.41
2.0639999 2.767 -1.091 0.41
2.052 2.7690001 -1.089 0.46000001
2.049 2.783 -1.0930001 0.41
2.05 2.7939999 -1.096 0.38
2.043 2.8039999 -1.097 0.40000001
2.0339999 2.8080001 -1.097 0.36000001
2.036 2.8299999 -1.103 0.38999999
2.0320001 2.8440001 -1.1059999 0.44999999
2.0339999 2.8659999 -1.113 0.30000001
2.0550001 2.9159999 -1.132 0.34999999
2.0469999 2.914 -1.13 0.40000001
2.039 2.9219999 -1.13 0.43000001
2.02 2.915 -1.124 0.36000001
2.0039999 2.9100001 -1.12 0.28
1.995 2.9159999 -1.12 0.059999999
1.9809999 2.9159999 -1.117 0
1.964 2.9100001 -1.112 0
1.944 2.9000001 -1.105 0
2.2539999 2.8110001 -1.174 0.090000004
2.233 2.8039999 -1.1670001 0.12
2.2179999 2.803 -1.164 0.18000001
2.1919999 2.7880001 -1.154 0.12
2.1659999 2.773 -1.143 0
2.161 2.7839999 -1.145 0
2.155 2.786 -1.145 0
2.1489999 2.796 -1.146 0
2.1340001 2.8139999 -1.148 0
2.2079999 2.7690001 -1.186 0.13
2.1800001 2.7509999 -1.174 0.13
2.165 2.75 -1.171 0.2
2.152 2.7420001 -1.165 0.11
2.132 2.733 -1.158 0
2.1370001 2.7579999 -1.1670001 0
2.1259999 2.7620001 -1.165 0
2.105 2.7520001 -1.158 0
2.098 2.7620001 -1.159 0
2.0829999 2.7590001 -1.155 0
1.976 2.9360001 -1.225 0.25
1.967 2.9419999 -1.225 0.30000001
1.964 2.957 -1.229 0.31
1.9630001 2.967 -1.232 0.36000001
1.956 2.9760001 -1.234 0.17
2.0179999 2.941 -1.274 0.25
1.99 2.9189999 -1.261 0.20999999
2.0020001 2.947 -1.273 0.28999999
1.9910001 2.95 -1.271 0.34
1.98 2.954 -1.27 0.38
1.976 2.9690001 -1.274 0.41
1.967 2.9749999 -1.274 0.31999999
1.9630001 2.9890001 -1.278 0.44999999
1.956 3 -1.28 0.16
2.194 2.756 -1.301 0.20999999
2.1760001 2.7509999 -1.295 0.25
2.1689999 2.7609999 -1.296 0.31999999
2.165 2.7639999 -1.296 0.36000001
2.1619999 2.779 -1.3 0.34
2.158 2.7909999 -1.303 0.46000001
2.1500001 2.799 -1.304 0.28999999
2.1370001 2.8 -1.301 0.47999999
2.1259999 2.8039999 -1.299 0.38999999
2.1270001 2.8239999 -1.306 0.47999999
2.1440001 2.855 -1.3200001 0.36000001
2.1270001 2.9760001 -1.355 0.23999999
2.089 2.9419999 -1.335 0.34
2.0739999 2.941 -1.332 0.33000001
2.0550001 2.934 -1.325 0.38999999
2.049 2.9449999 -1.327 0.36000001
2.033 2.9419999 -1.323 0.47
2.0250001 2.9389999 -1.3200001 0.41
2.01 2.938 -1.316 0.43000001
2.01 2.9579999 -1.323 0.38
1.998 2.9590001 -1.3200001 0.51999998
1.992 2.97 -1.323 0.37
1.982 2.977 -1.323 0.46000001
1.97 2.9779999 -1.3200001 0.44999999
1.975 3.006 -1.331 0.55000001
2.191 2.7579999 -1.337 0.18000001
2.1719999 2.7520001 -1.33 0.2
2.1589999 2.753 -1.327 0.25
2.151 2.7609999 -1.3279999 0.25
2.1459999 2.7720001 -1.33 0.34
2.1370001 2.779 -1.33 0.38
2.1289999 2.7780001 -1.3279999 0.38
2.1240001 2.789 -1.33 0.44
2.115 2.796 -1.33 0.27000001
2.072 2.756 -1.307 0.17
2.075 2.9400001 -1.368 0.23999999
2.0539999 2.9200001 -1.357 0.33000001
2.036 2.9130001 -1.35 0.31
2.0209999 2.9119999 -1.346 0.36000001
2.013 2.9200001 -1.347 0.34
2 2.9200001 -1.344 0.38
1.992 2.928 -1.345 0.41
1.98 2.931 -1.3430001 0.40000001
1.977 2.9360001 -1.344 0.41
1.9680001 2.9419999 -1.344 0.38999999
1.9579999 2.948 -1.344 0.43000001
1.944 2.9460001 -1.34 0.43000001
1.943 2.9649999 -1.346 0.38
1.939 2.98 -1.351 0.16
2.29 2.7390001 -1.388 0.18000001
2.266 2.7279999 -1.378 0.33000001
2.2539999 2.7309999 -1.376 0.34
2.2379999 2.73 -1.3710001 0.34999999
2.2219999 2.727 -1.365 0.33000001
2.204 2.7219999 -1.359 0.28999999
2.2019999 2.7290001 -1.3609999 0.30000001
2.198 2.7409999 -1.364 0.43000001
2.175 2.7309999 -1.355 0.28999999
2.1719999 2.7449999 -1.358 0.33000001
2.1600001 2.7479999 -1.3559999 0.31999999
2.161 2.766 -1.362 0.37
2.154 2.776 -1.364 0.34
2.1589999 2.79 -1.37 0.38
2.154 2.802 -1.372 0.27000001
2.1470001 2.8110001 -1.374 0
2.0829999 2.941 -1.402 0.23
2.05 2.905 -1.382 0.23
2.0409999 2.9119999 -1.382 0.34999999
2.026 2.9089999 -1.377 0.27000001
2.0120001 2.9089999 -1.374 0.33000001
1.995 2.904 -1.368 0.33000001
1.989 2.914 -1.37 0.36000001
1.98 2.921 -1.37 0.36000001
1.974 2.9219999 -1.369 0.36000001
1.9680001 2.9330001 -1.372 0.33000001
1.965 2.948 -1.376 0.38
1.955 2.9530001 -1.376 0.31999999
1.942 2.954 -1.373 0
2.2609999 2.7490001 -1.418 0.25
2.2539999 2.757 -1.418 0.31999999
2.233 2.7409999 -1.4069999 0.36000001
2.2249999 2.7479999 -1.4069999 0.36000001
2.2190001 2.7590001 -1.41 0.34999999
2.2019999 2.7539999 -1.403 0.36000001
2.1930001 2.7609999 -1.403 0.33000001
2.1930001 2.78 -1.41 0.38
2.178 2.7780001 -1.405 0.36000001
2.174 2.7809999 -1.405 0.34999999
2.1760001 2.803 -1.413 0.36000001
2.1730001 2.8169999 -1.4170001 0.34
2.1670001 2.8280001 -1.419 0.33000001
2.184 2.869 -1.437 0.12
2.0710001 2.944 -1.4349999 0.23999999
2.0450001 2.927 -1.4220001 0.30000001
2.04 2.9389999 -1.425 0.28999999
2.013 2.9200001 -1.4119999 0.36000001
2.0090001 2.924 -1.413 0.31999999
2.003 2.9349999 -1.415 0.34
1.984 2.9260001 -1.4069999 0.36000001
1.978 2.937 -1.41 0.36000001
1.97 2.9449999 -1.41 0.38999999
1.957 2.9460001 -1.408 0.36000001
1.948 2.9519999 -1.408 0.38999999
1.955 2.974 -1.418 0.30000001
1.946 2.98 -1.418 0.14
2.303 2.7590001 -1.4809999 0.54000002
2.2809999 2.7509999 -1.472 0.44999999
2.2780001 2.756 -1.473 0.27000001
2.2490001 2.7390001 -1.459 0.55000001
2.253 2.76 -1.4680001 0.38
2.2460001 2.77 -1.469 0.5
2.2290001 2.767 -1.4630001 0.38999999
2.2130001 2.7639999 -1.4579999 0.61000001
2.22 2.7909999 -1.469 0.33000001
2.2049999 2.7820001 -1.462 0.55000001
2.2030001 2.7969999 -1.467 0.31999999
2.1930001 2.803 -1.466 0.54000002
2.1960001 2.8239999 -1.474 0.49000001
2.0599999 2.924 -1.474 0.43000001
2.0580001 2.9400001 -1.479 0.34
2.036 2.928 -1.469 0.5
2.0320001 2.9330001 -1.47 0.34999999
2.0209999 2.9360001 -1.4680001 0.41
2.0139999 2.9460001 -1.47 0.41999999
2 2.9460001 -1.467 0.41999999
1.989 2.9489999 -1.465 0.55000001
1.985 2.9630001 -1.469 0.40000001
1.964 2.9530001 -1.46 0.58999997
1.975 2.9790001 -1.472 0.34
1.9529999 2.967 -1.4630001 0.61000001
