# .PCD v0.7 - Point Cloud Data file format
VERSION 0.7
FIELDS x y z intensity
SIZE 4 4 4 4
TYPE F F F F
COUNT 1 1 1 1
WIDTH 349
HEIGHT 1
VIEWPOINT 0 0 0 1 0 0 0
POINTS 349
DATA ascii
14.27 -1.332 -0.169 0.25999999
14.24 -1.307 -0.168 0.25
14.216 -1.26 -0.167 0.25
14.214 -1.215 -0.167 0.23999999
14.198 -1.169 -0.167 0.23999999
14.185 -1.123 -0.16599999 0.1
14.185 -1.0779999 -0.16599999 0.16
14.18 -1.033 -0.16599999 0.1
14.196 -1.011 -0.16599999 0.16
14.201 -0.96700001 -0.16599999 0.16
14.214 -0.92299998 -0.167 0.16
14.231 -0.87900001 -0.167 0.16
14.265 -0.83600003 -0.168 0.16
14.3 -0.79299998 -0.169 0.16
14.331 -0.77200001 -0.17 0.17
14.351 -0.72799999 -0.17 0.16
13.486 -1.507 -0.23 0
13.494 -1.465 -0.23 0
13.473 -1.442 -0.229 0
13.461 -1.398 -0.229 0
13.454 -1.354 -0.228 0
13.432 -1.309 -0.228 0
13.43 -1.267 -0.227 0
13.446 -1.225 -0.228 0
13.44 -1.204 -0.228 0
13.43 -1.16 -0.227 0
13.427 -1.117 -0.227 0
13.435 -1.076 -0.227 0
13.438 -1.033 -0.227 0
13.419 -0.98900002 -0.226 0
13.434 -0.94800001 -0.227 0
13.436 -0.92699999 -0.227 0
13.443 -0.88499999 -0.227 0
13.445 -0.84299999 -0.227 0
13.458 -0.801 -0.227 0
13.456 -0.759 -0.227 0
13.485 -0.71799999 -0.228 0
13.473 -0.67500001 -0.227 0
13.495 -0.63300002 -0.228 0
13.484 -0.61199999 -0.228 0
13.512 -0.56999999 -0.228 0
13.531 -0.52899998 -0.229 0
13.551 -0.48699999 -0.23 0
13.58 -0.44499999 -0.23100001 0
13.59 -0.403 -0.23100001 0
13.625 -0.361 -0.23199999 0
13.585 -0.33899999 -0.23100001 0.07
13.808 -0.301 -0.23800001 0
13.285 -1.575 -0.31200001 0
13.345 -1.539 -0.31400001 0.07
13.36 -1.499 -0.31400001 0.22
13.345 -1.454 -0.31400001 0.25
13.337 -1.432 -0.31299999 0.25999999
13.322 -1.388 -0.31200001 0.11
13.322 -1.346 -0.31200001 0.16
13.324 -1.304 -0.31200001 0.12
13.326 -1.262 -0.31200001 0.16
13.322 -1.22 -0.31200001 0.27000001
13.304 -1.176 -0.31099999 0.11
13.311 -1.1339999 -0.31099999 0
13.273 -1.11 -0.31 0
13.277 -1.068 -0.31 0
13.29 -1.027 -0.31 0
13.279 -0.98500001 -0.30899999 0
13.292 -0.94400001 -0.31 0
13.277 -0.90100002 -0.30899999 0
13.294 -0.86000001 -0.31 0
13.287 -0.83899999 -0.30899999 0
13.282 -0.796 -0.30899999 0
13.298 -0.755 -0.31 0
13.315 -0.71399999 -0.31 0.14
13.327 -0.67299998 -0.31 0.11
13.333 -0.63099998 -0.31099999 0
13.337 -0.58899999 -0.31099999 0
13.348 -0.56900001 -0.31099999 0
13.357 -0.52700001 -0.31099999 0
13.337 -0.48500001 -0.31099999 0
13.372 -0.44400001 -0.31200001 0
13.366 -0.40099999 -0.31200001 0.090000004
13.385 -0.36000001 -0.31200001 0.18000001
13.406 -0.31799999 -0.31299999 0.25999999
13.287 -0.29499999 -0.308 0
13.529 -0.257 -0.31799999 0
13.14 -1.601 -0.38499999 0
13.158 -1.5829999 -0.38600001 0
13.201 -1.546 -0.38800001 0
13.825 -1.576 -0.41499999 0
13.317 -1.053 -0.391 0
13.301 -1.0089999 -0.38999999 0
13.304 -0.96700001 -0.38999999 0
13.301 -0.92500001 -0.389 0
13.318 -0.884 -0.38999999 0
13.354 -0.84500003 -0.39199999 0
13.377 -0.80400002 -0.39199999 0
13.268 -0.296 -0.38699999 0
13.229 -0.25400001 -0.38499999 0
13.652 -0.241 -0.40400001 0
12.977 -1.595 -0.45300001 0
13.018 -1.559 -0.45500001 0
13.298 -1.571 -0.46900001 0
13.868 -1.5930001 -0.498 0
13.906 -1.3099999 -0.498 0
14.018 -0.69999999 -0.50099999 0
14.034 -0.61299998 -0.50199997 0
14.04 -0.56900001 -0.50199997 0
13.231 -0.30899999 -0.461 0
13.1 -0.26499999 -0.45500001 0
13.051 -0.223 -0.45199999 0
13.534 -0.20900001 -0.47600001 0
12.898 -1.6339999 -0.53200001 0
12.909 -1.594 -0.53299999 0
12.939 -1.557 -0.53399998 0
13.862 -1.626 -0.58600003 0
13.903 -1.586 -0.588 0
12.965 -0.31 -0.52999997 0
13.028 -0.271 -0.53399998 0
12.965 -0.229 -0.52999997 0
12.981 -0.18799999 -0.53100002 0
13.755 -0.15800001 -0.57499999 0
12.81 -1.636 -0.59600002 0
12.82 -1.617 -0.597 0
12.877 -1.5829999 -0.60000002 0
12.947 -0.26199999 -0.59799999 0
12.91 -0.221 -0.59600002 0
12.889 -0.18000001 -0.59500003 0
13.098 0.016000001 -0.699 0
13.112 0.035999998 -0.69999999 0
13.149 0.078000002 -0.70300001 0
13.063 -1.906 -0.70599997 0.050000001
13.034 -1.86 -0.704 0.17
13.025 -1.8380001 -0.70300001 0.27000001
12.995 -1.7920001 -0.69999999 0.16
12.85 -1.73 -0.69 0
12.693 -1.668 -0.67900002 0
12.677 -1.626 -0.67699999 0
12.696 -1.5880001 -0.67799997 0
12.727 -0.28400001 -0.67400002 0
12.736 -0.244 -0.67400002 0
12.783 -0.22499999 -0.67699999 0
12.751 -0.184 -0.67500001 0
12.784 -0.145 -0.67699999 0
13.048 -0.066 -0.69599998 0
13.066 -0.025 -0.69700003 0
13.167 0.0020000001 -0.76899999 0
12.578 -1.669 -0.73299998 0
12.556 -1.626 -0.73100001 0
12.549 -1.585 -0.73000002 0
12.53 -1.543 -0.72899997 0
12.521 -1.521 -0.72799999 0
12.514 -1.4809999 -0.727 0
12.502 -1.4400001 -0.72600001 0
12.493 -1.399 -0.72500002 0
12.503 -1.36 -0.72500002 0
12.489 -1.319 -0.72399998 0
12.498 -1.28 -0.72399998 0
12.484 -1.239 -0.72299999 0
12.468 -1.2180001 -0.722 0
12.519 -1.183 -0.72500002 0.13
12.527 -1.1440001 -0.72500002 0.25999999
12.538 -1.105 -0.72600001 0.27000001
12.554 -1.067 -0.727 0.25999999
12.551 -1.027 -0.72600001 0.31999999
12.538 -0.98699999 -0.72500002 0.23
12.562 -0.96799999 -0.727 0.36000001
12.569 -0.92900002 -0.727 0.22
12.587 -0.89099997 -0.72799999 0.34
12.572 -0.85000002 -0.727 0.18000001
12.607 -0.81300002 -0.72899997 0.38
12.577 -0.77100003 -0.727 0.19
12.601 -0.73299998 -0.72899997 0.37
12.597 -0.713 -0.72799999 0.23
12.603 -0.67299998 -0.72799999 0.18000001
12.607 -0.634 -0.72899997 0.16
12.619 -0.59500003 -0.72899997 0
12.634 -0.47600001 -0.73000002 0
12.66 -0.45699999 -0.73199999 0
12.708 -0.259 -0.73500001 0
12.713 -0.219 -0.73500001 0
12.729 -0.199 -0.73699999 0
12.724 -0.15899999 -0.736 0
13.015 -0.121 -0.75800002 0
13.111 -0.081 -0.76499999 0
13.133 -0.039999999 -0.76599997 0
12.408 -1.674 -0.80299997 0
12.303 -1.601 -0.79400003 0
12.29 -1.5599999 -0.79299998 0
12.263 -1.518 -0.79000002 0
12.26 -1.478 -0.79000002 0
12.255 -1.438 -0.78899997 0
12.247 -1.398 -0.78799999 0
12.236 -1.378 -0.787 0
12.248 -1.34 -0.787 0
12.224 -1.299 -0.78500003 0
12.224 -1.26 -0.78500003 0
12.218 -1.22 -0.78399998 0
12.22 -1.182 -0.78399998 0
12.214 -1.142 -0.78299999 0
12.212 -1.123 -0.78299999 0
12.231 -1.086 -0.78399998 0
12.207 -1.045 -0.78200001 0
12.214 -1.007 -0.78200001 0
12.213 -0.96799999 -0.78200001 0
12.226 -0.93099999 -0.78200001 0
12.223 -0.89200002 -0.78200001 0
12.21 -0.87199998 -0.78100002 0
12.217 -0.83399999 -0.78100002 0
12.229 -0.796 -0.78200001 0
12.236 -0.75800002 -0.78200001 0
12.238 -0.71899998 -0.78200001 0
12.24 -0.68099999 -0.78200001 0
12.256 -0.64300001 -0.78299999 0
12.263 -0.62400001 -0.78399998 0
12.269 -0.58600003 -0.78399998 0
12.279 -0.54799998 -0.78500003 0
12.298 -0.50999999 -0.78600001 0
12.296 -0.47099999 -0.78600001 0
12.313 -0.433 -0.787 0
12.319 -0.39399999 -0.78799999 0
12.337 -0.37599999 -0.78899997 0
12.348 -0.33700001 -0.79000002 0
12.365 -0.29899999 -0.79100001 0
12.358 -0.25999999 -0.79000002 0
12.405 -0.222 -0.79400003 0
12.425 -0.183 -0.796 0
12.444 -0.14399999 -0.79699999 0
12.554 -0.126 -0.80599999 0
13.034 -0.090999998 -0.84500003 0
12.156 -1.658 -0.85399997 0
12.112 -1.614 -0.84899998 0
12.085 -1.591 -0.847 0
12.09 -1.553 -0.847 0
12.061 -1.511 -0.84399998 0
12.061 -1.472 -0.84399998 0
12.058 -1.434 -0.84299999 0
12.031 -1.392 -0.83999997 0
12.025 -1.353 -0.83899999 0
12.012 -1.3329999 -0.838 0
12.01 -1.294 -0.83700001 0
12.002 -1.255 -0.83600003 0
12.014 -1.2180001 -0.83700001 0
11.998 -1.179 -0.83499998 0
12.009 -1.142 -0.83600003 0
12.009 -1.104 -0.83600003 0
12.001 -1.084 -0.83499998 0
11.992 -1.045 -0.83399999 0
11.991 -1.007 -0.833 0
12.006 -0.97100002 -0.83399999 0
11.987 -0.93099999 -0.833 0
12.008 -0.89499998 -0.83399999 0
12.009 -0.85699999 -0.83399999 0
12.004 -0.838 -0.833 0
12.019 -0.801 -0.83399999 0
12.019 -0.76300001 -0.83399999 0
12.022 -0.72500002 -0.83399999 0
12.044 -0.68800002 -0.83600003 0
12.036 -0.64999998 -0.83499998 0
12.03 -0.61199999 -0.83399999 0
12.055 -0.59399998 -0.83700001 0
12.053 -0.55599999 -0.83600003 0
12.072 -0.51899999 -0.838 0
12.082 -0.48100001 -0.838 0
12.091 -0.44400001 -0.83899999 0
12.106 -0.40599999 -0.83999997 0
12.118 -0.368 -0.84100002 0
12.138 -0.34999999 -0.84299999 0
12.151 -0.31200001 -0.84399998 0
12.172 -0.27399999 -0.84600002 0
12.189 -0.236 -0.847 0
12.203 -0.198 -0.84799999 0
12.22 -0.16 -0.85000002 0
12.268 -0.122 -0.85399997 0
12.457 -0.104 -0.87 0
12.944 -0.066 -0.912 0
11.923 -1.678 -0.98199999 0.17
11.913 -1.638 -0.98100001 0.19
11.897 -1.579 -0.97799999 0.69999999
11.93 -1.507 -0.98100001 0.60000002
11.824 -1.456 -0.97000003 0.34
11.811 -1.4170001 -0.96799999 0
11.77 -1.374 -0.96399999 0
11.733 -1.3329999 -0.95999998 0
11.713 -1.312 -0.95700002 0
11.709 -1.274 -0.95700002 0
11.725 -1.239 -0.958 0
11.697 -1.199 -0.95499998 0
11.711 -1.163 -0.95599997 0
11.708 -1.126 -0.95499998 0
11.704 -1.0880001 -0.954 0
11.709 -1.0700001 -0.95499998 0
11.703 -1.0319999 -0.954 0
11.714 -0.99599999 -0.954 0
11.705 -0.95899999 -0.95300001 0
11.736 -0.92400002 -0.95599997 0
11.737 -0.88700002 -0.95599997 0
11.714 -0.84799999 -0.95300001 0
11.703 -0.829 -0.95200002 0
11.718 -0.79299998 -0.95300001 0
11.714 -0.75599998 -0.95300001 0
11.722 -0.71899998 -0.95300001 0
11.734 -0.68300003 -0.954 0
11.739 -0.64600003 -0.954 0
11.738 -0.62800002 -0.954 0
11.749 -0.59100002 -0.95499998 0
11.751 -0.55400002 -0.95499998 0
11.765 -0.51800001 -0.95599997 0
11.764 -0.48100001 -0.95599997 0
11.764 -0.44400001 -0.95599997 0
11.807 -0.40799999 -0.95999998 0
11.82 -0.38999999 -0.96100003 0
11.849 -0.354 -0.96399999 0
11.838 -0.31600001 -0.963 0
11.857 -0.28 -0.96499997 0.07
12.278 -0.211 -1.006 0
11.934 -0.169 -0.972 0
11.973 -0.131 -0.97600001 0
12.08 -0.113 -0.986 0
12.286 -0.075999998 -1.006 0
11.668 -1.29 -1.025 0
11.648 -1.251 -1.023 0
11.682 -1.2359999 -1.026 0
11.733 -1.13 -1.03 0
11.709 -1.09 -1.027 0
11.71 -1.053 -1.027 0.12
11.68 -1.0319999 -1.024 0.090000004
11.679 -0.995 -1.023 0
11.668 -0.95700002 -1.022 0
11.661 -0.92000002 -1.021 0.11
11.67 -0.884 -1.021 0
11.655 -0.84600002 -1.0190001 0.079999998
11.673 -0.81 -1.021 0.11
11.708 -0.79400003 -1.025 0.38999999
11.691 -0.75599998 -1.023 0.11
11.693 -0.71899998 -1.023 0.079999998
11.733 -0.685 -1.027 0
11.712 -0.64700001 -1.024 0
11.829 -0.616 -1.036 0
11.727 -0.574 -1.025 0
11.695 -0.53500003 -1.022 0
11.708 -0.51700002 -1.023 0.15000001
11.72 -0.48100001 -1.024 0.27000001
11.943 -0.41499999 -1.0470001 0.2
11.94 -0.37799999 -1.0470001 0.69
12.013 -0.34200001 -1.054 0.66000003
11.865 -0.301 -1.039 0.17
11.917 -0.28299999 -1.044 0.30000001
11.991 -0.248 -1.052 0.76999998
11.95 -0.20900001 -1.0470001 0.99000001
11.911 -0.171 -1.043 0.74000001
11.948 -0.096000001 -1.0470001 0
